# .PCD v0.7 - Point Cloud Data file format
VERSION 0.7
FIELDS x y z rgb
SIZE 4 4 4 4
TYPE F F F F
COUNT 1 1 1 1
WIDTH 1059
HEIGHT 1
VIEWPOINT 0 0 0 1 0 0 0
POINTS 1059
DATA ascii
2.0261707 -0.010370118 1.5413346 1.7527974e-39
2.0458426 -0.0041539613 1.5454149 9.2250281e-41
1.9455068 0.0069075511 1.5401945 1.4708183e-39
1.9674402 0.013170744 1.5519651 2.3931179e-39
1.9979852 0.013406601 1.5486178 2.0257829e-39
2.0256112 0.014263391 1.5410755 2.1212212e-39
2.0479312 0.015570668 1.5460004 6.461135e-40
1.9367287 0.052295864 1.5560086 2.5782266e-39
1.9679296 0.049805645 1.5526596 2.1176184e-39
1.9988171 0.044279467 1.5462396 2.3016509e-39
2.0270221 0.045044787 1.5444802 1.4758517e-39
2.0428789 0.04166773 1.5443538 9.2736251e-40
1.9702979 0.073096395 1.5536484 1.6566403e-39
1.994923 0.076492369 1.5444351 2.5789497e-39
2.0266914 0.073066123 1.5413939 3.1350059e-39
2.0433464 0.075567231 1.5445837 5.2680835e-39
1.9706547 0.098156475 1.5550652 1.7473982e-39
1.9970164 0.1022542 1.5490519 2.6711481e-39
2.0280955 0.10652275 1.5416847 4.7952602e-39
2.0431719 0.095958032 1.5441453 6.2822508e-39
1.977839 0.12541148 1.5467579 2.6679181e-39
1.9954535 0.139589 1.544834 2.8558995e-39
2.0266683 0.13474426 1.5442725 4.6119479e-39
1.9705664 0.16618234 1.5507197 3.7735468e-39
1.990934 0.16506937 1.5458091 3.2232443e-39
2.0311763 0.16471484 1.541376 8.3951903e-39
1.970184 0.19138393 1.5458101 3.406195e-39
1.993825 0.19439773 1.5461344 2.5803958e-39
2.0202127 0.19722648 1.5405955 5.7200891e-39
1.9697917 0.22354606 1.5499183 4.5103804e-39
1.9968605 0.22451802 1.5499343 3.1339311e-39
2.0227427 0.22424126 1.5431449 6.3651054e-39
2.0429127 0.23663698 1.5526494 1.04253e-38
1.9499124 0.26730904 1.5396292 4.4164009e-39
1.9641039 0.25717089 1.5466524 3.867169e-39
1.9932748 0.25359643 1.5457627 3.0410138e-39
2.0219848 0.25538334 1.5416092 5.904486e-39
2.0431061 0.25023592 1.5591301 9.3239835e-39
1.9494827 0.27654096 1.5396125 4.3252703e-39
1.9728303 0.28289458 1.5438027 3.8664417e-39
1.9951341 0.28517053 1.5475354 2.4892862e-39
2.0223534 0.28335869 1.5448604 7.1030334e-39
1.9955349 0.3119337 1.5502784 2.4899939e-39
2.0240612 0.31557745 1.5464678 6.4572996e-39
1.9708073 0.35100898 1.5470842 3.3175979e-39
1.9934688 0.34671551 1.5455301 2.4900023e-39
2.0226207 0.3425445 1.5453601 7.7476797e-39
1.9949746 0.37369329 1.5472578 2.7662318e-39
2.0199494 0.37758273 1.5421473 9.6848725e-39
2.0020945 0.40324375 1.5407461 5.4384912e-39
2.0169356 0.40499148 1.5434029 1.0699379e-38
1.9783849 0.42035249 1.5406834 3.3176035e-39
1.9994838 0.42822742 1.5496458 2.121252e-39
2.0194046 0.43471703 1.5439894 1.0607904e-38
2.0066512 0.46717429 1.5412072 8.6725241e-39
2.016906 0.4638688 1.544394 9.8674561e-39
1.970474 0.48342666 1.5448792 3.685286e-39
1.9997832 0.49458572 1.5451639 7.748386e-39
2.0196807 0.49571157 1.5442699 1.336945e-38
1.9760712 0.5367943 1.5393451 4.1509599e-39
2.0017211 0.52575201 1.5430899 7.5589823e-39
2.0159616 0.52473325 1.5445777 1.3002836e-38
1.9488221 0.54480207 1.531875 2.1233567e-39
1.9733952 0.5533036 1.5497948 3.9604534e-39
1.9992999 0.55366927 1.5433997 7.7444469e-39
2.0181749 0.55672175 1.5443599 1.5305915e-38
1.9762915 0.5758633 1.5539836 8.2835797e-40
2.0065615 0.5877412 1.5426377 1.5120093e-38
2.0166185 0.58323812 1.546428 1.4842419e-38
2.005621 0.61538106 1.5450481 1.4566542e-38
2.0186839 0.61561382 1.5436087 1.6686333e-38
2.042408 0.62531394 1.5309217 1.8250784e-38
2.0025227 0.64908981 1.546164 1.6042391e-38
2.0218089 0.64435339 1.5441791 1.7238416e-38
2.0415192 0.64551425 1.5308356 1.8346565e-38
1.9772406 0.68113232 1.5358098 1.1169028e-38
1.9937632 0.67421341 1.5467904 1.2724817e-38
2.0228574 0.6675173 1.5395784 1.7149466e-38
2.0407295 0.66347003 1.5307593 1.7793757e-38
0.23776975 0.71806186 1.5590724 1.9820274e-38
0.25306949 0.71824378 1.5558145 2.0006822e-38
0.28145534 0.71881407 1.5508959 2.0099377e-38
0.31766543 0.71848679 1.5541133 1.9914264e-38
0.34381527 0.71823478 1.5524666 2.0467796e-38
0.37693247 0.71755618 1.5438048 2.0375241e-38
0.39595804 0.71770281 1.5422722 2.0191929e-38
0.43875098 0.71790379 1.5459213 2.0742939e-38
0.46550274 0.71899843 1.5338969 2.0742942e-38
0.49034768 0.71722233 1.5542293 2.1021325e-38
0.53236729 0.71834093 1.5540885 2.1759253e-38
0.55127227 0.71890253 1.5541476 2.1942924e-38
0.60987777 0.71990877 1.5484889 2.1942923e-38
1.9765946 0.70335001 1.537358 1.2274989e-38
1.9937787 0.7041136 1.5430008 1.3737893e-38
2.0195217 0.712372 1.539836 1.6778891e-38
0.23197094 0.72533196 1.5519421 1.9822072e-38
0.25650749 0.725411 1.551109 1.9821714e-38
0.28505573 0.7256425 1.5481576 1.9913547e-38
0.31533283 0.72608882 1.5470241 2.000646e-38
0.34620577 0.72697181 1.5450785 2.0190132e-38
0.374852 0.7276504 1.5467139 2.0097937e-38
0.40524924 0.7278052 1.5450895 2.0374884e-38
0.43521586 0.72803277 1.5445061 2.0651109e-38
0.46432254 0.72834218 1.5429056 2.0928415e-38
0.49529082 0.72919035 1.5447909 2.148123e-38
0.52479851 0.73025614 1.5459694 2.1942566e-38
0.55518049 0.7302143 1.5449647 2.221915e-38
0.5842585 0.73070097 1.5442189 2.2311345e-38
0.61531776 0.73136693 1.5449467 2.2495376e-38
0.64472324 0.73171234 1.544703 2.2495736e-38
0.6750533 0.73222119 1.5446756 2.2403541e-38
0.70484561 0.73270899 1.5455663 2.1942564e-38
0.73499411 0.73421162 1.5461057 2.1205e-38
0.76483262 0.73512095 1.5458089 2.0559272e-38
0.79467732 0.73479551 1.5451387 2.0190849e-38
0.82452816 0.73697126 1.545211 2.019013e-38
0.85493761 0.73671979 1.544335 1.9821707e-38
0.8846038 0.73803449 1.5446988 1.9822066e-38
0.91484153 0.73756599 1.5458044 1.9637675e-38
0.94614857 0.73854321 1.5463657 1.9084144e-38
0.97474885 0.73807085 1.5452543 1.8715361e-38
1.0052623 0.73831701 1.5460284 1.853133e-38
1.0342207 0.73784465 1.5458605 1.8439134e-38
1.064742 0.74017316 1.5451002 1.83473e-38
1.09412 0.74075633 1.5449607 1.8438776e-38
1.1239941 0.74122477 1.5458595 1.8807558e-38
1.1539969 0.74080575 1.5464689 1.8530973e-38
1.1852723 0.7425034 1.5459301 1.8623171e-38
1.2151027 0.74196553 1.5445111 1.862353e-38
1.2440906 0.7417987 1.5445665 1.8346943e-38
1.2762034 0.74419314 1.5458455 1.8069637e-38
1.3046722 0.74437493 1.5439547 1.7609735e-38
1.3350616 0.74393153 1.5465434 1.7608653e-38
1.3646966 0.74205905 1.5461389 1.5304484e-38
1.3952628 0.74234515 1.5451652 1.1799616e-38
1.4253517 0.73896521 1.5441324 5.532863e-39
1.453909 0.7366184 1.5449624 4.3371981e-39
1.4849805 0.73813468 1.5444319 4.7967315e-39
1.5154545 0.73932326 1.5452416 3.9680583e-39
1.5445104 0.73675019 1.5447456 4.2439291e-39
1.5763603 0.7381047 1.5434918 4.2439263e-39
1.6039525 0.73870027 1.5424856 4.1513691e-39
1.6339279 0.74010444 1.5445598 3.9673366e-39
1.664945 0.74145693 1.5456909 4.3339653e-39
1.6928579 0.73762935 1.5441133 4.4265169e-39
1.7238704 0.73911983 1.5424374 3.9673352e-39
1.7565463 0.73943174 1.5436547 4.1517222e-39
1.7829993 0.73919165 1.5452553 3.9669695e-39
1.8133273 0.74045694 1.5465845 3.8754997e-39
1.8451052 0.74002242 1.5457121 3.9684156e-39
1.8772715 0.742544 1.5457907 3.5085178e-39
1.9033697 0.74138713 1.5435377 3.8755067e-39
1.9338855 0.74276233 1.5434673 4.1524523e-39
1.9698194 0.74286246 1.5477984 7.4696929e-39
1.9951158 0.7365526 1.5444955 1.4938584e-38
2.0219216 0.73521239 1.5377823 1.6964362e-38
0.86726201 0.75133729 1.5451891 1.9729872e-38
0.87876147 0.75195807 1.5325068 1.9361811e-38
0.91946387 0.7516107 1.5453311 1.9084504e-38
0.944866 0.75081545 1.5397285 1.8807557e-38
0.97359014 0.7531929 1.5399531 1.8347659e-38
1.0102366 0.75349629 1.5465997 1.8347659e-38
1.0356648 0.75320226 1.5459937 1.8255462e-38
1.0601122 0.75237876 1.5427989 1.8346939e-38
1.0967617 0.75371158 1.5414063 1.8714642e-38
1.1254729 0.75385052 1.5451436 1.8161831e-38
1.1537352 0.75458288 1.5444306 1.8071432e-38
1.182952 0.75388157 1.5460266 1.843842e-38
1.2154298 0.75452411 1.5446292 1.7978519e-38
1.2437251 0.75475496 1.5398021 1.7794132e-38
1.2760246 0.75603509 1.5420936 1.7609379e-38
1.3062031 0.75747573 1.5457394 1.7332431e-38
1.3339711 0.7549814 1.5441767 1.696401e-38
1.3622578 0.75454593 1.5418307 1.6503389e-38
1.3959595 0.75786918 1.545217 1.5859083e-38
1.4261535 0.75673628 1.5441157 1.2169125e-38
1.4551296 0.75648206 1.543655 9.5894525e-39
1.48499 0.75701553 1.5439597 9.3150222e-39
1.5110564 0.75779825 1.5448456 1.143409e-38
1.5442281 0.75353968 1.5463401 6.1789471e-39
1.5706333 0.75175393 1.5424095 3.691463e-39
1.5991243 0.75248945 1.544113 3.8740746e-39
1.6371799 0.75200772 1.5432285 3.5063444e-39
1.6690384 0.75173539 1.5383967 3.4145159e-39
1.696245 0.75357467 1.5437438 2.9549755e-39
1.7235664 0.7532658 1.5448902 3.2297645e-39
1.755633 0.7535876 1.5451354 3.5049193e-39
1.7836397 0.75419325 1.5456766 3.2283282e-39
1.8173378 0.75509685 1.5429325 3.8719012e-39
1.8458669 0.75337464 1.5457184 3.597831e-39
1.8747721 0.75433612 1.5437987 2.8631512e-39
1.9029477 0.75305104 1.5466597 3.1372256e-39
1.9354339 0.75244594 1.5461912 2.8624408e-39
1.9660442 0.75455439 1.5390151 7.6645337e-39
1.9980098 0.75667483 1.5424606 1.6137125e-38
2.016892 0.75390601 1.5381716 1.6871091e-38
1.8265018 -0.79127949 1.5722028 2.947721e-39
1.8424774 -0.78936487 1.573471 3.2235974e-39
1.867679 -0.78204674 1.5632399 3.2225072e-39
1.8225734 -0.76214075 1.5772167 2.3945556e-39
1.8431298 -0.76399636 1.5738746 3.039925e-39
1.8660531 -0.76260662 1.5640323 3.0392048e-39
1.8987648 -0.7545622 1.5621164 1.8460664e-39
1.7992971 -0.72185206 1.5846148 9.2375276e-40
1.8185374 -0.73439801 1.578247 2.3941997e-39
1.8428453 -0.73394293 1.5745044 2.7647717e-39
1.8700162 -0.73176914 1.5712121 3.4072698e-39
1.8982706 -0.73065954 1.5700973 2.6714999e-39
1.9268742 -0.73602211 1.5611497 2.2116105e-39
1.9986664 -0.73513365 1.561579 2.3920445e-39
-0.94194287 -0.71314287 1.5600001 1.9368089e-39
1.7973561 -0.70250988 1.5686791 1.85836e-40
1.8196422 -0.70342118 1.5814545 1.8439126e-39
1.845168 -0.70382833 1.5722767 2.6729404e-39
1.8728917 -0.70595515 1.5677545 3.4991025e-39
1.8948131 -0.71141344 1.5632304 3.224675e-39
1.8226467 -0.67601526 1.5794114 3.0417215e-39
1.8452086 -0.67402583 1.572976 3.0406425e-39
1.8672436 -0.67559355 1.5670687 3.2239534e-39
1.9027189 -0.66890204 1.5621208 3.959366e-39
1.7966015 -0.64023542 1.5840033 1.6566333e-39
1.8192551 -0.64439559 1.5823058 3.222887e-39
1.8466902 -0.64469665 1.5740906 3.0410012e-39
1.8719034 -0.64440387 1.5686618 3.2243177e-39
1.9047834 -0.64426601 1.5635442 3.222524e-39
1.9227557 -0.63544619 1.5637364 3.1296011e-39
1.8235385 -0.61774856 1.58447 3.1317633e-39
1.8472652 -0.61563909 1.5756583 3.0399292e-39
1.872102 -0.61334831 1.5705993 2.8569701e-39
1.8996133 -0.61147189 1.5674541 2.6715097e-39
1.9223291 -0.62627894 1.5637199 2.3952773e-39
1.8212872 -0.58276945 1.5744241 3.133564e-39
1.8493048 -0.58437032 1.5756437 3.0388446e-39
1.8746612 -0.58467549 1.5684214 2.5785924e-39
1.8994551 -0.58257169 1.5671141 2.3023628e-39
1.9377204 -0.57543075 1.5604695 2.116524e-39
1.7961955 -0.55669355 1.583209 1.6591598e-39
1.8153204 -0.55435467 1.5764979 3.3157931e-39
1.8484609 -0.5546568 1.5770497 2.4863967e-39
1.8751096 -0.55317825 1.570454 2.669709e-39
1.9024168 -0.55531514 1.5698986 2.6704237e-39
1.92836 -0.54276586 1.564191 1.8413805e-39
1.7996433 -0.5353992 1.5803934 2.1168939e-39
1.8217742 -0.52750182 1.5846666 3.2221527e-39
1.8485759 -0.5258804 1.5811727 2.4867527e-39
1.8745813 -0.52501464 1.5736632 2.6693489e-39
1.9042137 -0.5223214 1.5731294 2.4867513e-39
1.9272904 -0.52923739 1.5680737 2.5774993e-39
1.8222215 -0.49684674 1.5834204 2.3952759e-39
1.8473545 -0.49297726 1.5788786 2.3949116e-39
1.8744184 -0.49426252 1.5718874 2.6707852e-39
1.9045309 -0.49797177 1.5737748 2.2119594e-39
1.9303538 -0.4835979 1.5753856 2.6700621e-39
1.8225424 -0.46560657 1.5833598 2.4881918e-39
1.8483834 -0.46572745 1.575801 2.9477252e-39
1.8748719 -0.46456233 1.5691645 3.1313976e-39
1.906882 -0.46380585 1.5705292 2.5803818e-39
1.9354326 -0.46513242 1.5766584 2.7633297e-39
1.9545873 -0.4659214 1.5750307 2.1201169e-39
1.821552 -0.43841881 1.58285 4.0515518e-39
1.8500887 -0.43509629 1.5808116 3.5916541e-39
1.8744926 -0.43530706 1.5744627 3.4069083e-39
1.9051653 -0.43394282 1.5730466 3.1310417e-39
1.9245814 -0.43838957 1.5712568 2.9466406e-39
1.8209288 -0.41305503 1.5840619 4.1448377e-39
1.8508815 -0.40758935 1.5812697 3.9593632e-39
1.8733166 -0.40493524 1.5742531 3.3154329e-39
1.9055074 -0.40827262 1.5693812 3.039202e-39
1.9362183 -0.40262684 1.5740095 2.7633367e-39
1.955999 -0.39656237 1.5636603 2.6689831e-39
1.9822417 -0.39033204 1.5685173 5.2353421e-39
1.813771 -0.36406034 1.5880338 4.145181e-39
1.8518274 -0.37626219 1.5818946 3.1296067e-39
1.8753715 -0.37367484 1.576528 3.4065496e-39
1.9001337 -0.37405694 1.5713466 2.7633297e-39
1.9412448 -0.37697542 1.5832931 2.8548135e-39
1.9629167 -0.37575594 1.5746517 4.5179446e-39
1.9901087 -0.37749553 1.5643549 1.0136804e-38
1.836398 -0.33323395 1.5875772 2.3985269e-39
1.8776778 -0.3461386 1.5793358 3.4991039e-39
1.9006573 -0.34180436 1.5726348 2.9466518e-39
1.9405711 -0.34809101 1.5812073 2.3952745e-39
1.9616526 -0.34466407 1.5742601 4.0594944e-39
1.8484149 -0.31290787 1.5808499 2.5807588e-39
1.8785442 -0.3144244 1.5805523 3.1310431e-39
1.9008073 -0.31543821 1.5700177 2.9466476e-39
1.9405159 -0.31360385 1.576449 2.3949228e-39
1.9602795 -0.31632754 1.5714709 5.5299525e-39
1.8297654 -0.27424386 1.5898545 2.3970878e-39
1.8525475 -0.28520977 1.5792015 3.405479e-39
1.8755498 -0.28396857 1.5789813 2.8544604e-39
1.9019716 -0.28444633 1.5708631 2.5782294e-39
1.9405135 -0.29116768 1.5726671 3.3179553e-39
1.9578981 -0.28730679 1.5743754 4.4268378e-39
1.8290241 -0.25831446 1.5898259 2.6718474e-39
1.8439735 -0.25078192 1.5814921 3.0377642e-39
1.8777909 -0.25473022 1.5784222 2.3941955e-39
1.9003679 -0.25518805 1.5691313 2.577505e-39
1.9336734 -0.25704512 1.5700643 3.5005389e-39
1.9665916 -0.25215152 1.5774053 6.4562192e-39
1.9876049 -0.24391577 1.5686178 4.1498683e-39
2.024523 -0.25464362 1.5622356 1.0134387e-39
1.8473074 -0.22686286 1.5839324 3.2200129e-39
1.8749436 -0.2261035 1.5813866 2.6704195e-39
1.9028928 -0.22541842 1.5707316 2.3934766e-39
1.9313095 -0.22324997 1.5698168 1.931788e-39
1.970324 -0.22216135 1.5785061 1.1960251e-39
1.9952221 -0.22700049 1.5722404 1.1963838e-39
2.01335 -0.23037715 1.5670558 7.393615e-40
1.8212905 -0.18789062 1.5789034 2.2083665e-39
1.8591988 -0.19508097 1.5893493 3.3107624e-39
1.8754504 -0.19444694 1.5793632 2.3027173e-39
1.9055902 -0.19580391 1.5761157 2.0257773e-39
1.9325099 -0.19488856 1.5728904 1.7481156e-39
1.9683416 -0.19416197 1.5743302 1.0127058e-39
1.9876902 -0.19514951 1.5645978 5.5388564e-40
2.025892 -0.19387366 1.5600077 9.197941e-40
1.7929821 -0.15204015 1.577969 6.6373805e-39
1.8535576 -0.16074137 1.5811191 1.1524437e-38
1.8747076 -0.16207904 1.5790135 9.0315522e-39
1.9051669 -0.16416708 1.57576 4.9763864e-39
1.9352589 -0.16879755 1.569605 2.6722201e-39
1.9667492 -0.16958942 1.5715284 3.7810718e-39
1.984223 -0.16569455 1.5617827 6.3542495e-39
1.792168 -0.13960347 1.5760882 4.240643e-39
1.850456 -0.14037935 1.5823275 1.3639862e-38
1.8733505 -0.13623311 1.5813614 1.0686735e-38
1.9066287 -0.13725275 1.5765225 2.3012894e-39
1.9313259 -0.13290872 1.5747222 1.5673271e-39
1.9653164 -0.13060445 1.57678 1.2918192e-39
1.9904187 -0.12920475 1.5696965 1.6573675e-39
2.0106282 -0.12255775 1.5656126 1.930007e-39
2.0540619 -0.12224501 1.5633588 1.8654506e-40
1.8576238 -0.10741203 1.5863674 1.5406717e-38
1.873036 -0.10496931 1.5812446 1.2810132e-38
1.9079604 -0.10391839 1.5800307 3.8675221e-39
1.931502 -0.10598978 1.5758003 2.2105329e-39
1.9644983 -0.10348907 1.5750087 2.1168996e-39
1.9954 -0.10686586 1.5715191 1.1949475e-39
2.0164471 -0.10131004 1.563687 1.1027532e-39
2.0419652 -0.094064295 1.5685287 5.5209478e-40
2.0816181 -0.095695943 1.5859697 2.7766449e-40
1.8575578 -0.075729817 1.5867331 1.4584885e-38
1.8759986 -0.077216484 1.5840073 9.8605856e-39
1.9046906 -0.073727153 1.5804403 5.2490202e-39
1.9378055 -0.074903868 1.577729 4.7008841e-39
1.9623405 -0.075417474 1.5742335 6.2685573e-39
1.9959593 -0.073852316 1.5703784 2.2098084e-39
2.0146074 -0.075170092 1.562457 1.0112751e-39
2.0401797 -0.084324919 1.5691484 6.4357154e-40
1.8560377 -0.043071665 1.586674 4.9803885e-39
1.8762591 -0.047874253 1.5808703 8.2975997e-39
1.9043994 -0.046228983 1.5779551 2.7615417e-39
1.9349605 -0.043593656 1.5747287 2.0250613e-39
1.9648182 -0.040069375 1.5726335 1.6562829e-39
1.9956657 -0.047110453 1.5705525 1.1041854e-39
2.0150433 -0.043470625 1.5677356 1.2867816e-39
1.8846657 -0.024762416 1.58851 2.2105119e-39
1.9033558 -0.015715495 1.5768723 2.2094427e-39
1.9368614 -0.015057129 1.5805597 1.4729679e-39
1.9625483 -0.015325622 1.5767559 1.7481114e-39
1.9917127 -0.015239929 1.5729896 1.6562773e-39
2.0248716 -0.014968417 1.5772053 1.1034693e-39
2.0542939 -0.010300929 1.5794348 7.3612871e-40
1.9101849 0.013579018 1.5836649 2.115459e-39
1.9405614 0.013860062 1.5794517 1.5644446e-39
1.9634342 0.014285603 1.5743726 1.6566417e-39
1.9926258 0.019028487 1.57064 1.2878591e-39
2.0253422 0.01752807 1.5677363 9.2123183e-40
2.0514271 0.013586719 1.571425 7.3648464e-40
1.9167923 0.043061148 1.5848838 1.6562815e-39
1.9368467 0.045411583 1.5761327 2.1158177e-39
1.9638096 0.046974041 1.5742595 1.8403099e-39
1.9939473 0.043764018 1.5738528 1.1956663e-39
2.0171251 0.044353351 1.5696408 1.2882151e-39
1.939248 0.073593274 1.5791986 2.2073001e-39
1.9660909 0.074383751 1.5768501 1.9325097e-39
1.9938093 0.077914238 1.5763162 1.8406742e-39
2.0283227 0.074461006 1.5718361 9.2124024e-40
2.0478084 0.072879352 1.5664809 9.2267657e-40
1.9428313 0.10351123 1.5871172 1.3818498e-39
1.9670118 0.1046137 1.5750332 2.1165394e-39
1.9924194 0.10446081 1.5721905 2.2083749e-39
2.0215054 0.10831232 1.5728563 1.9325153e-39
2.0494039 0.10682672 1.5727938 1.0134415e-39
1.9129262 0.13410734 1.5863047 2.7597382e-39
1.9402899 0.13615437 1.582387 2.5775106e-39
1.9656531 0.13490202 1.5750519 2.2090924e-39
1.9910003 0.13339439 1.5713205 2.3016495e-39
2.022562 0.1327637 1.5720508 2.1176212e-39
1.9129252 0.15240708 1.58575 2.6693334e-39
1.9416758 0.16383393 1.5826136 2.3934794e-39
1.9652588 0.1638739 1.5749468 2.5760742e-39
1.9895761 0.16681983 1.5755419 2.7619074e-39
2.0277336 0.16304472 1.5754178 1.8417518e-39
2.0447674 0.16687216 1.566025 6.4682396e-40
1.9443712 0.19759515 1.5841848 2.6689859e-39
1.9692833 0.19526653 1.5800706 2.8526597e-39
1.9922266 0.19650489 1.5764204 2.6704307e-39
2.0213518 0.19047914 1.5810856 1.7484842e-39
2.0457878 0.18120623 1.5684979 8.344382e-40
1.9387878 0.22574432 1.5856776 3.4051034e-39
1.9715521 0.2259372 1.5807517 3.221801e-39
1.9913069 0.22479239 1.5763181 3.1292508e-39
2.0213208 0.22741474 1.5779349 1.7513722e-39
1.9419539 0.25549543 1.5822731 3.3150728e-39
1.9662095 0.25344735 1.5786259 4.1423167e-39
1.9895928 0.25349072 1.5778087 3.0377811e-39
2.0271657 0.25351062 1.5761743 2.1194331e-39
2.0459638 0.24627995 1.5756422 9.2272281e-40
1.9395492 0.2856141 1.5853271 3.0395691e-39
1.9689574 0.28252241 1.5800472 3.4976676e-39
1.9909884 0.28552851 1.5785139 2.945584e-39
2.0228517 0.28800854 1.5777867 2.3981626e-39
2.0442743 0.28759024 1.5656071 2.6765599e-39
1.9369633 0.30437046 1.5863441 3.3161462e-39
1.9743478 0.31460172 1.5824819 3.4983795e-39
1.9928253 0.31606245 1.577822 3.9568465e-39
2.0220189 0.31290001 1.5766679 2.7658745e-39
2.0456588 0.31366074 1.5766548 1.476593e-39
1.9464244 0.35874152 1.5788912 3.6845714e-39
1.9724207 0.34588689 1.5830727 3.1314116e-39
1.9929422 0.34582153 1.5747275 3.7746202e-39
2.0247366 0.34571707 1.572315 2.1241106e-39
2.0468993 0.34330383 1.5797945 1.3869183e-39
1.9432367 0.37354773 1.5803967 3.9586401e-39
1.9661021 0.37370822 1.5755137 3.7749761e-39
1.9926599 0.37474436 1.5750976 3.6835008e-39
2.0260627 0.37686098 1.5714991 3.4148495e-39
2.0506916 0.36494175 1.5892063 6.4825328e-40
1.9276365 0.41886485 1.5885888 2.9513223e-39
1.9706507 0.40546653 1.5837379 3.6827875e-39
1.9981884 0.40237811 1.5742269 3.5905961e-39
2.0260971 0.40623218 1.571896 2.5843783e-39
2.0456474 0.41630173 1.5866605 1.2032544e-39
1.9698763 0.43573368 1.583532 4.1426699e-39
1.9971468 0.43702665 1.5760305 3.4998354e-39
2.0242946 0.43679121 1.5751507 3.3201357e-39
2.0432897 0.43776551 1.575579 3.2297337e-39
1.9732283 0.4623228 1.5804313 3.5923912e-39
1.9957838 0.46412122 1.5735552 3.3154427e-39
2.0237792 0.4634425 1.5733193 4.056256e-39
2.0461197 0.46155787 1.5824522 2.031234e-39
1.9769874 0.48752493 1.5757755 4.2359683e-39
1.9950858 0.4933854 1.5765108 3.4980403e-39
2.0272226 0.49956545 1.5739373 6.1774673e-39
2.046828 0.49448642 1.5866162 6.8318443e-39
1.9633775 0.51896715 1.5847535 4.14303e-39
2.0002198 0.52563506 1.5728321 3.2225423e-39
2.0254116 0.52435404 1.5740095 7.2827429e-39
2.0426545 0.52419591 1.5890319 1.0521425e-38
1.9728109 0.56861311 1.5774611 4.3260017e-39
1.9957913 0.55332792 1.5803885 3.4080055e-39
2.0227149 0.55544668 1.5728625 7.8384432e-39
2.0425797 0.55404443 1.5883015 1.0332009e-38
1.9686347 0.58014464 1.5796723 3.6820757e-39
1.9940413 0.58402961 1.5735592 3.7753839e-39
2.0209851 0.58528972 1.572106 1.0236244e-38
2.0037091 0.62312269 1.577966 9.3107132e-39
2.020201 0.61473292 1.5754967 1.1895759e-38
2.0004537 0.64824814 1.5749824 1.1805002e-38
2.0222178 0.64420015 1.5758034 1.2726595e-38
2.0414314 0.6458472 1.5865034 1.207331e-38
1.9981331 0.67488015 1.5740565 9.7738256e-39
2.0159588 0.6621297 1.5798439 1.0791196e-38
0.14165592 0.71449208 1.5834427 1.9819912e-38
0.16571979 0.71516967 1.5784024 1.926746e-38
0.19629164 0.71580535 1.5801135 1.9636959e-38
0.22589172 0.71557653 1.5774689 1.9821351e-38
0.25513685 0.71717066 1.577388 2.0098657e-38
0.28594065 0.71647042 1.5774927 1.9913906e-38
0.31200185 0.71607023 1.5749214 2.0098294e-38
0.34749353 0.71710759 1.575372 2.037524e-38
0.37379578 0.71783149 1.574671 2.0282688e-38
0.40524322 0.71772778 1.5764338 2.037524e-38
0.43384665 0.71714252 1.5794789 2.0467077e-38
0.46616262 0.7182638 1.5765461 2.0836219e-38
0.48870146 0.71842462 1.5753875 2.0928775e-38
0.52790719 0.71967691 1.5763186 2.1574143e-38
0.55300397 0.71955949 1.5694367 2.1851089e-38
0.58365411 0.7199102 1.5695816 2.2403182e-38
0.68391025 0.71934593 1.5893373 2.2587565e-38
0.73711574 0.71998334 1.5899354 2.1296479e-38
0.77397847 0.71709704 1.5847704 2.0746892e-38
1.4855587 0.71872455 1.5889261 4.1524481e-39
1.8395127 0.71883857 1.5879152 4.0577498e-39
1.9986906 0.7031424 1.5733867 1.0144051e-38
2.0136201 0.71570468 1.5768006 1.069942e-38
0.16807143 0.72230482 1.5777001 1.9725556e-38
0.20015582 0.72392881 1.5745519 1.9728437e-38
0.22449361 0.7258172 1.5776018 1.9913909e-38
0.25466058 0.72476232 1.5762762 1.9913906e-38
0.2867738 0.72557163 1.5761242 2.000646e-38
0.31554136 0.72473288 1.5754641 2.0006101e-38
0.3448827 0.72494364 1.5737625 2.0097935e-38
0.37555775 0.72534442 1.5760322 2.0097935e-38
0.40501872 0.72621053 1.5733215 2.0374881e-38
0.43462616 0.72660846 1.5745198 2.0559272e-38
0.46494001 0.72746003 1.5747267 2.0835859e-38
0.49652228 0.72908545 1.5748497 2.1389033e-38
0.52446342 0.72792614 1.5748626 2.1942205e-38
0.55481225 0.72846383 1.5759495 2.2311345e-38
0.58533448 0.72949189 1.5740548 2.2495736e-38
0.61514372 0.7301544 1.5745655 2.2495736e-38
0.64571673 0.72931159 1.5755649 2.2680486e-38
0.67468256 0.72949487 1.5745373 2.2495736e-38
0.70503414 0.73155779 1.5746635 2.2126595e-38
0.73510253 0.73042542 1.574504 2.1573783e-38
0.7650041 0.73148495 1.5752138 2.1020249e-38
0.79518127 0.73309886 1.5753266 2.0283044e-38
0.82509053 0.73413026 1.5760312 2.0098296e-38
0.85541052 0.73530316 1.5755478 2.0098293e-38
0.88413721 0.73453504 1.5740769 1.9638035e-38
0.91509414 0.73559898 1.5739021 1.9729869e-38
0.94503909 0.73631853 1.5741827 1.9268534e-38
0.97468698 0.73631984 1.5746903 1.8899754e-38
1.0054702 0.73780006 1.5748419 1.8623526e-38
1.0350643 0.73741674 1.5758957 1.8438778e-38
1.0649883 0.73696417 1.5741845 1.8438777e-38
1.0941917 0.73800486 1.5734504 1.8438774e-38
1.1253476 0.73991448 1.5765285 1.8346942e-38
1.153457 0.73935962 1.5758131 1.8623168e-38
1.1852756 0.74109113 1.5734464 1.8531334e-38
1.2158232 0.74154305 1.5751147 1.8346586e-38
1.244506 0.7405836 1.575996 1.8346946e-38
1.2746375 0.74202329 1.5735922 1.7977443e-38
1.3064632 0.74287164 1.5740981 1.7517541e-38
1.3364658 0.74089998 1.5761437 1.4936415e-38
1.3631725 0.73647064 1.5766562 8.5767495e-39
1.3965168 0.73666114 1.5747091 6.1796702e-39
1.4243979 0.73747742 1.5752259 6.5480954e-39
1.4548173 0.73757976 1.5763506 6.2725805e-39
1.4856306 0.7352947 1.5757726 4.6119857e-39
1.5148666 0.73912328 1.5763218 4.4272357e-39
1.5437644 0.73631001 1.575942 4.2435633e-39
1.574791 0.7348029 1.5780934 4.3357618e-39
1.6048424 0.73646092 1.5771948 4.1513677e-39
1.634389 0.73769063 1.576449 3.875141e-39
1.6658876 0.73936057 1.5748363 4.0584588e-39
1.6940757 0.73780459 1.5747527 4.0588148e-39
1.7250874 0.73819017 1.5753511 4.1502887e-39
1.7545253 0.73955315 1.5744824 4.3350331e-39
1.7860699 0.73924029 1.5755808 3.6918259e-39
1.8140332 0.73788697 1.5738753 3.7833055e-39
1.8466995 0.73697555 1.5753195 4.0591763e-39
1.8750125 0.7401011 1.5740631 3.875864e-39
1.905123 0.73927557 1.5750349 3.6921902e-39
1.9336798 0.74121171 1.5724659 4.2424872e-39
1.9696567 0.7441656 1.5722522 4.8892929e-39
1.9959008 0.73389614 1.5735794 9.4958038e-39
2.0125065 0.72734046 1.5795875 9.319739e-39
0.91134113 0.75030345 1.5668629 1.9361812e-38
0.97897768 0.75261813 1.5645444 1.8255112e-38
1.0050315 0.75125736 1.572704 1.8256186e-38
1.0369635 0.7520873 1.5689944 1.8255106e-38
1.0613464 0.75281215 1.5795854 1.8071074e-38
1.0998052 0.75181055 1.5774682 1.8070359e-38
1.1241742 0.75219762 1.5729692 1.825403e-38
1.1558096 0.75328511 1.5743692 1.8255105e-38
1.1841245 0.75253391 1.5737581 1.8070356e-38
1.2164854 0.7537567 1.5739098 1.7794132e-38
1.2476823 0.75463033 1.5739046 1.7701575e-38
1.2752141 0.75437725 1.577153 1.7701574e-38
1.3070567 0.75379992 1.5743693 1.7240593e-38
1.3353677 0.75309962 1.5751643 1.6503383e-38
1.3652712 0.75370914 1.5764922 1.2353517e-38
1.3932691 0.75403589 1.5749143 1.0231584e-38
1.4206203 0.75342518 1.5707124 8.9437412e-39
1.4536672 0.75202405 1.5723917 9.4972639e-39
1.484306 0.75483412 1.5729254 1.1341161e-38
1.5125753 0.75530487 1.5724199 1.1340074e-38
1.5440147 0.75532597 1.5773563 6.4537291e-39
1.5741698 0.75179446 1.5744922 3.5985499e-39
1.6016505 0.75291377 1.5741203 3.6903882e-39
1.6365759 0.75118047 1.5756762 3.0475313e-39
1.6608588 0.75125527 1.5790722 3.2304722e-39
1.6982931 0.75264317 1.5677096 2.1284673e-39
1.7280543 0.75460273 1.5734926 3.2301415e-39
1.7561119 0.75648892 1.5794154 3.3216085e-39
1.7838383 0.75277114 1.5734618 3.5045634e-39
1.8090072 0.75433195 1.5657699 3.6878756e-39
1.843977 0.75311536 1.568033 3.6878756e-39
1.8749175 0.75197518 1.5746658 2.4943743e-39
1.9087366 0.75388694 1.5758713 2.9546238e-39
1.937114 0.75366259 1.5746642 3.1375871e-39
1.968576 0.75595671 1.5793965 4.0584532e-39
1.9855524 0.75370312 1.5849257 6.7335404e-39
1.7547234 -0.78165567 1.6179042 7.7483776e-39
1.7898295 -0.79317236 1.6142339 8.3879974e-39
1.8133917 -0.78780854 1.6066729 6.8167019e-39
1.839354 -0.78941339 1.6039475 2.4845975e-39
1.7606344 -0.75230598 1.6167963 7.0079553e-39
1.7918409 -0.76319993 1.6120366 1.2353479e-38
1.8134794 -0.76292199 1.6048363 5.8025457e-39
1.8373163 -0.76500589 1.606891 1.565518e-39
1.7583017 -0.7437067 1.6177119 7.8348195e-39
1.7930635 -0.73558092 1.6163626 1.1890361e-38
1.8137246 -0.73296499 1.6091974 6.1734975e-39
1.8422613 -0.7321853 1.6051371 2.1197764e-39
1.8697966 -0.72160733 1.6187805 2.0315198e-39
1.7640417 -0.69978797 1.6147075 1.0328424e-38
1.7866387 -0.70350516 1.6078198 9.955326e-39
1.8143578 -0.70586181 1.6052331 3.6856602e-39
1.8450186 -0.70676166 1.6046194 2.7644143e-39
-0.75186348 -0.68842942 1.61285 1.9318175e-39
-0.74902308 -0.68840259 1.6124507 2.8530605e-39
1.7650427 -0.67950439 1.6081052 7.7415687e-39
1.7841959 -0.67780107 1.6060371 8.2932879e-39
1.8148839 -0.6760577 1.6029903 3.5005459e-39
1.8384532 -0.67448777 1.5975035 2.3967164e-39
1.7539427 -0.64260697 1.6178443 1.050777e-38
1.7940907 -0.64585483 1.6033348 6.1742247e-39
1.812272 -0.64960217 1.6002759 3.6845756e-39
1.8419763 -0.64575195 1.6046815 2.8569771e-39
1.7682612 -0.62571979 1.611258 1.0781859e-38
1.7892524 -0.61482948 1.6074206 8.2929221e-39
1.8172115 -0.61344808 1.6059748 3.2239618e-39
1.8407309 -0.61382544 1.6017605 2.7636969e-39
1.8692101 -0.60659671 1.5988209 2.4888981e-39
1.7878186 -0.5819236 1.6130992 8.2929235e-39
1.8165894 -0.58853477 1.6069297 2.3023684e-39
1.8437854 -0.58564371 1.6048826 2.7626235e-39
1.8651181 -0.58164024 1.612691 2.6714886e-39
1.7562659 -0.55647957 1.6119144 1.0781118e-38
1.7887974 -0.56156695 1.6116475 6.0827438e-39
1.8195918 -0.55284911 1.6057734 1.9353894e-39
1.8408345 -0.55601168 1.6012456 2.6707908e-39
1.872776 -0.55359411 1.5966606 2.1197624e-39
1.8958392 -0.55484444 1.5970354 2.2087266e-39
1.7926389 -0.51849437 1.6131631 2.7622634e-39
1.8167996 -0.52327019 1.6067244 2.3020083e-39
1.8410983 -0.52469921 1.6013368 2.6704237e-39
1.8679742 -0.5238052 1.5988652 2.2105287e-39
1.9065024 -0.51624596 1.5908489 1.8431797e-39
1.7906313 -0.49594432 1.6128596 2.6700677e-39
1.8155873 -0.49680975 1.606629 2.4871156e-39
1.8390888 -0.49407181 1.6018164 2.3027229e-39
1.8686696 -0.49439391 1.5966258 2.8533688e-39
1.9043984 -0.50014198 1.5914605 2.0279227e-39
1.9360708 -0.48160157 1.5933561 2.5782294e-39
1.7880232 -0.46592376 1.6120448 2.8530269e-39
1.8165905 -0.46575162 1.6066178 2.9455784e-39
1.8441138 -0.4623135 1.6032454 2.9462889e-39
1.8744966 -0.46573013 1.6023356 2.5778707e-39
1.8915399 -0.47221512 1.5970078 2.8541129e-39
1.9361392 -0.47011289 1.5930279 2.9469979e-39
1.7896068 -0.43450391 1.6115894 3.3150756e-39
1.816708 -0.43429205 1.608255 3.5902262e-39
1.8437847 -0.43592092 1.6025776 3.2232331e-39
1.8700597 -0.43682238 1.6027178 3.1303242e-39
1.9029301 -0.42633489 1.6001706 3.2214408e-39
1.9302982 -0.44164306 1.5951422 2.7629654e-39
1.7865665 -0.40760094 1.6130923 3.9600723e-39
1.8169011 -0.40439335 1.6088997 3.3154315e-39
1.8471407 -0.40214387 1.6058085 3.2232331e-39
1.8684844 -0.40554753 1.6001328 2.9466518e-39
1.9079314 -0.40425301 1.6050789 2.8544506e-39
1.9304489 -0.4030427 1.5951899 3.0384915e-39
1.7955114 -0.37371236 1.6129777 3.5001787e-39
1.8148495 -0.37490979 1.6112285 3.8671662e-39
1.8465797 -0.3757804 1.6060472 3.2225198e-39
1.8713797 -0.37657115 1.6029695 3.4069013e-39
1.9047184 -0.37543499 1.6059043 3.0384817e-39
1.9313855 -0.37509286 1.5929034 2.57967e-39
1.7940377 -0.34813964 1.6140094 3.5001941e-39
1.8212398 -0.3461552 1.6136888 3.5905835e-39
1.8449147 -0.34589383 1.6045676 3.5912982e-39
1.8746085 -0.34473875 1.6039393 2.6707824e-39
1.9021257 -0.34771484 1.6049148 2.7626151e-39
1.9291306 -0.34522295 1.5939765 2.3959962e-39
1.8189738 -0.31712279 1.6105447 3.31507e-39
1.8451868 -0.31434008 1.6056943 3.3150686e-39
1.873207 -0.31546465 1.6011919 2.8540974e-39
1.8986243 -0.30992872 1.6040004 2.0261332e-39
1.9279746 -0.31416956 1.593649 2.210886e-39
1.962236 -0.30897221 1.5939772 2.118682e-39
1.7930391 -0.28877211 1.6183174 3.0402824e-39
1.8199682 -0.28378236 1.6118097 3.0384859e-39
1.8466345 -0.28548837 1.6031382 2.9470119e-39
1.8761158 -0.2826755 1.6061649 2.0254158e-39
1.9026086 -0.28594702 1.6026797 2.0257773e-39
1.9376394 -0.28678125 1.6005487 1.9346635e-39
1.9583503 -0.28190187 1.595175 1.5662313e-39
1.8197033 -0.26056451 1.5999472 2.669702e-39
1.8494759 -0.25376862 1.6030157 2.9459371e-39
1.8765996 -0.25556183 1.606863 1.7499121e-39
1.9026631 -0.25407928 1.6051555 1.8413875e-39
1.9395112 -0.25525266 1.6028196 1.5658838e-39
1.9576467 -0.25609732 1.594855 1.4740385e-39
1.784876 -0.22839427 1.6159934 3.1288711e-39
1.8219637 -0.21927999 1.61292 2.9434274e-39
1.8484123 -0.226114 1.602563 2.6700635e-39
1.8774679 -0.22271198 1.6100901 1.8413861e-39
1.9034984 -0.22381429 1.6057549 1.6569934e-39
1.9342353 -0.2243336 1.6011337 1.3814855e-39
1.9594657 -0.2230113 1.5982777 1.5647964e-39
1.8234125 -0.20253694 1.6115235 2.1179729e-39
1.8471467 -0.19504254 1.6023391 3.4962243e-39
1.8795575 -0.19542789 1.610464 1.4733224e-39
1.9043977 -0.19436 1.6041911 1.3811296e-39
1.9372295 -0.19221379 1.6002983 1.2889325e-39
1.957201 -0.19450399 1.5934905 9.2266115e-40
1.9843916 -0.20443362 1.5994133 8.3082566e-40
1.8184217 -0.15907466 1.6105131 7.9270221e-39
1.8487537 -0.1640065 1.6046795 9.3070573e-39
1.8728504 -0.16340952 1.6071193 9.8605772e-39
1.9041154 -0.16686921 1.604279 6.1709653e-39
1.9350311 -0.16680707 1.6018189 3.870036e-39
1.9553111 -0.16685031 1.5937012 2.4914204e-39
1.7901808 -0.14049035 1.603934 3.3230055e-39
1.8169242 -0.14236355 1.6087981 3.3183196e-39
1.8457571 -0.13801041 1.6055713 8.0217345e-39
1.874665 -0.13357705 1.6057992 1.2167271e-38
1.9035996 -0.13405287 1.6011708 5.6188747e-39
1.9357284 -0.13316417 1.6035466 9.208801e-40
1.9542483 -0.12612492 1.5969559 9.2158495e-40
1.9915752 -0.12442388 1.5964018 7.3684337e-40
2.0109801 -0.12318946 1.6021755 9.208787e-40
1.8139322 -0.1009337 1.6142535 2.3002146e-39
1.8545936 -0.10577368 1.6027972 7.1030376e-39
1.8719106 -0.10430779 1.6060557 1.1158911e-38
1.9038755 -0.10566944 1.5988295 1.0409791e-38
1.9377768 -0.10567918 1.6046864 1.1960223e-39
1.9662719 -0.099208362 1.6021446 1.8399469e-39
1.9889758 -0.10597172 1.6009345 1.6562759e-39
1.8257748 -0.065690711 1.6059208 2.1172443e-39
1.8500067 -0.075752825 1.6096092 2.2134154e-39
1.8761668 -0.074482113 1.6037695 8.7549849e-39
1.9023246 -0.074364811 1.5960131 6.7327963e-39
1.93321 -0.073422574 1.5986154 1.3807764e-39
1.9597242 -0.075891726 1.6049407 4.8856313e-39
1.9866761 -0.083166838 1.6129886 8.1138909e-39
1.8525625 -0.051021587 1.6039159 2.4017891e-39
1.8768827 -0.046007469 1.6070666 6.3622299e-39
1.904109 -0.042933125 1.6021868 5.8061555e-39
1.9329522 -0.045102362 1.6004872 9.2015703e-40
1.9567764 -0.044158105 1.6017375 1.5651649e-39
1.9807988 -0.030193174 1.5966887 9.4011713e-41
1.877714 -0.016964931 1.6086065 1.6573549e-39
1.9063923 -0.014741116 1.6055126 1.5647992e-39
1.9343159 -0.015137369 1.6011846 1.4726063e-39
1.9614099 -0.013826394 1.605804 1.4726021e-39
1.9878154 -0.015384449 1.6066465 1.0130645e-39
2.0657425 -0.0006832052 1.591264 6.4393728e-40
1.8557677 0.013821296 1.6050618 2.115452e-39
1.8762891 0.010253592 1.6114837 1.7488317e-39
1.9076715 0.013455239 1.6061313 1.4729665e-39
1.9334728 0.015018548 1.600547 1.4729651e-39
1.9662445 0.015991878 1.605757 1.1974558e-39
1.984109 0.016155357 1.5998199 1.0127156e-39
1.8778863 0.044658329 1.6120281 1.1045469e-39
1.9039397 0.04672914 1.6066164 1.4726077e-39
1.9380583 0.046877246 1.6062405 1.7477527e-39
1.9637009 0.043488011 1.602857 1.1963796e-39
1.992824 0.046365369 1.6004742 1.1034707e-39
2.0139003 0.043377999 1.5964748 8.2868307e-40
1.9084928 0.074791856 1.6117861 1.7481114e-39
1.9348837 0.074225448 1.6024573 1.9317838e-39
1.965064 0.076989308 1.6012869 1.288578e-39
1.9875275 0.073388621 1.5993425 1.3796932e-39
2.0150449 0.063946605 1.5953888 1.1953174e-39
2.0503569 0.067560196 1.5970073 1.1038238e-39
1.9081713 0.10489579 1.6117933 2.0239794e-39
1.9330091 0.10583533 1.6033844 1.9321468e-39
1.965785 0.10561948 1.6011813 2.024341e-39
1.9847265 0.10385896 1.5995332 1.3807708e-39
2.0609031 0.10933515 1.5907962 2.7946516e-40
2.0846381 0.10122522 1.598356 3.2178549e-39
1.8819557 0.13130978 1.6113882 2.9434162e-39
1.904759 0.1322114 1.6052467 2.48388e-39
1.9395733 0.1357871 1.6063883 2.2090854e-39
1.9646546 0.13331676 1.6016077 1.65592e-39
1.98764 0.13626385 1.5970919 1.6562843e-39
2.0156724 0.1428633 1.5930564 1.8406658e-39
1.9149616 0.16005352 1.6054606 2.9441393e-39
1.9385954 0.16538878 1.6070061 2.3920459e-39
1.963732 0.16461778 1.6018298 2.1183373e-39
1.9948509 0.16535892 1.6021886 2.1172541e-39
2.0261159 0.16642547 1.6019793 1.8413875e-39
2.0413971 0.17740583 1.5985513 3.5837578e-39
1.8896828 0.20372084 1.618396 3.8614012e-39
1.9037256 0.20259996 1.6098175 3.0370482e-39
1.9395466 0.1933465 1.6108009 2.7604669e-39
1.9604249 0.19413865 1.6000861 2.7608256e-39
1.9932801 0.19501857 1.6029216 2.5760756e-39
2.0248303 0.19469814 1.6048275 2.2083749e-39
2.0409937 0.18657403 1.5985123 3.2167829e-39
1.8889202 0.22010309 1.6183664 3.1285165e-39
1.9062772 0.22102967 1.6076934 3.1303074e-39
1.9353752 0.22264393 1.6017704 2.8537387e-39
1.962553 0.22408436 1.5998017 3.0374111e-39
1.9991136 0.22520594 1.6083304 2.7597494e-39
2.017487 0.22437672 1.602892 2.760111e-39
1.8873951 0.25286755 1.6183074 2.5782378e-39
1.8965218 0.25810471 1.6138543 3.4036727e-39
1.9324664 0.25640827 1.6070255 2.5775064e-39
1.9657334 0.25293946 1.6060582 3.4973229e-39
1.9979117 0.25712705 1.6089545 4.1423265e-39
2.0245392 0.25674319 1.6047267 2.7615403e-39
2.0448701 0.25485933 1.59487 1.3822352e-39
1.9375405 0.28339252 1.6064599 2.6693419e-39
1.9639752 0.287323 1.5994726 3.3139952e-39
2.000808 0.28506607 1.6048046 3.406558e-39
2.0203214 0.2838302 1.6033046 3.4033112e-39
2.0409803 0.28072071 1.5961008 1.5666138e-39
1.9389489 0.3136718 1.6082795 2.5778623e-39
1.9650211 0.31572407 1.6032771 3.2210807e-39
1.9931473 0.31865087 1.6029677 3.589866e-39
2.0224059 0.31551951 1.6047069 3.1292424e-39
2.0447204 0.32012269 1.5956311 1.8432049e-39
1.9174477 0.35229772 1.617981 3.5895157e-39
1.9370145 0.34482697 1.6089215 3.4065538e-39
1.9647858 0.34512767 1.6051979 3.0384915e-39
1.9946105 0.34495127 1.6057684 3.3147225e-39
2.0236459 0.34411302 1.6029323 2.6718642e-39
2.0478702 0.34156585 1.5984565 1.5694837e-39
1.9163504 0.37587219 1.6179385 3.4976844e-39
1.9373013 0.37363139 1.6072243 3.5912967e-39
1.9665462 0.37653351 1.6071661 3.2232373e-39
1.9950576 0.37570885 1.609254 3.2207346e-39
2.0207431 0.37354308 1.6039847 2.4853233e-39
2.0430589 0.36485147 1.5929273 1.385461e-39
1.9168102 0.40531605 1.6167628 4.5075119e-39
1.9343594 0.405269 1.6054858 3.498748e-39
1.9659563 0.40497166 1.6060908 3.4058349e-39
1.9908969 0.40517342 1.6032778 3.6817057e-39
2.0221703 0.4043957 1.6087755 2.7615473e-39
2.0489328 0.40832284 1.6069609 1.9361054e-39
1.9154339 0.43016639 1.6168526 3.8664445e-39
1.9356899 0.43474111 1.6037878 3.2239646e-39
1.9698906 0.43410689 1.6054913 3.5902262e-39
1.9930705 0.4346143 1.6003106 3.7742545e-39
2.0224347 0.43165848 1.6037478 2.5782406e-39
2.0501049 0.42742565 1.6036298 1.5698424e-39
1.9122902 0.46309757 1.6177809 3.49982e-39
1.9363514 0.46369699 1.6082867 3.225031e-39
1.969101 0.46444872 1.6083983 3.7742601e-39
1.9936208 0.46522787 1.6013033 3.4994655e-39
2.0259655 0.46726573 1.6042339 2.0268619e-39
2.0451636 0.47011992 1.5993834 1.4736895e-39
1.9378556 0.49659353 1.6116909 3.2236044e-39
1.9673892 0.49460235 1.608147 4.050847e-39
1.9935035 0.49399528 1.6025778 3.4983921e-39
2.027349 0.49540919 1.6050929 2.1197834e-39
2.0453806 0.49084437 1.6027468 1.7509995e-39
1.9168152 0.53890091 1.612705 3.7742559e-39
1.9380825 0.52772075 1.6149631 3.7746118e-39
1.9658918 0.52399486 1.6084766 3.7749804e-39
1.996233 0.52405769 1.6025001 3.4987564e-39
2.0231888 0.52397186 1.6051197 2.5800413e-39
2.0469224 0.52745306 1.6057842 1.6591906e-39
1.9162664 0.55068815 1.6126838 3.8678906e-39
1.9382992 0.55444568 1.614899 4.0504812e-39
1.96548 0.55567884 1.606887 4.2348739e-39
1.9971133 0.55349785 1.6072431 3.5902318e-39
2.0206902 0.55641663 1.606665 3.1310641e-39
2.0556107 0.55584568 1.6107938 4.3339457e-39
1.9422001 0.57187366 1.6172582 3.5916541e-39
1.9669244 0.58634478 1.6068892 3.9597331e-39
1.9979067 0.5847891 1.6098297 3.4072782e-39
2.0266483 0.58732295 1.603725 5.2522895e-39
2.0457554 0.57326198 1.6081442 3.1386283e-39
1.9411061 0.62296921 1.6079224 4.4232182e-39
1.9694813 0.61366254 1.6114347 4.2366704e-39
1.9937364 0.61408132 1.6044085 4.1452104e-39
2.0237854 0.61572206 1.603687 7.3767364e-39
2.0400512 0.60726863 1.606953 1.2811537e-38
1.9364126 0.64374894 1.614157 3.5913192e-39
1.9694971 0.64306986 1.6117388 4.4207197e-39
1.9950135 0.64175504 1.6056551 3.3150924e-39
2.0245917 0.64486212 1.6063627 6.1785561e-39
2.0413799 0.64361554 1.6055011 1.5210107e-38
1.9041317 0.68125367 1.6114992 5.6199972e-39
1.9282175 0.68097872 1.6098484 5.2501132e-39
1.9601862 0.67247999 1.6171968 4.6025802e-39
2.0008819 0.67590725 1.6108696 3.3143735e-39
2.0178187 0.6754427 1.6094917 6.3640306e-39
0.059100099 0.69786537 1.6140987 1.8346581e-38
0.078711621 0.70061183 1.6159456 1.9729154e-38
0.10822368 0.70971799 1.6124046 1.9360013e-38
0.13478652 0.71044052 1.6046593 1.9544402e-38
0.16401988 0.71328521 1.6067647 1.9545482e-38
0.1981438 0.71645135 1.6094183 1.9545839e-38
0.22395293 0.71570712 1.6067814 1.982171e-38
0.25662115 0.71563464 1.6043892 2.0006101e-38
0.28445247 0.71544039 1.6063975 2.0006459e-38
0.31554034 0.71524543 1.607362 2.0098294e-38
0.344008 0.71614015 1.6085638 2.019049e-38
0.37413773 0.7170009 1.6071932 2.019049e-38
0.40569961 0.71669 1.6085273 2.0283044e-38
0.43588448 0.71742016 1.6069787 2.037488e-38
0.46402881 0.71669048 1.6063257 2.0559271e-38
0.49425331 0.71795273 1.6076496 2.0743305e-38
0.52632982 0.71767396 1.6110895 2.1297556e-38
0.55336857 0.71687156 1.610002 2.1758533e-38
0.58315814 0.71810418 1.611275 2.24039e-38
0.61783975 0.71805269 1.6087954 2.2403542e-38
0.64523178 0.71858811 1.6108189 2.2403181e-38
0.67347705 0.71837711 1.6098074 2.2219151e-38
0.69356316 0.71822077 1.6107396 2.1942561e-38
0.73884177 0.71788436 1.6126006 2.1665618e-38
0.76663071 0.71727097 1.6100566 2.1020249e-38
0.78178775 0.71749604 1.5962939 2.0652897e-38
1.0405135 0.71851891 1.6179948 1.7794487e-38
1.0600246 0.71860898 1.6118442 1.7700133e-38
1.4819314 0.71855974 1.5911558 3.5096039e-39
1.5697426 0.7180028 1.6121278 5.1608449e-39
1.8356863 0.7186501 1.5906131 4.5176405e-39
1.8844588 0.70369047 1.6135582 3.596347e-39
1.9054269 0.70264417 1.6129217 3.9644149e-39
1.931168 0.70143163 1.6109478 3.7796565e-39
1.9529723 0.69320971 1.6199046 5.3397417e-39
2.0019851 0.70412219 1.6085711 3.1310669e-39
2.0156484 0.70376939 1.6084995 6.271479e-39
0.11811303 0.72148007 1.6070442 1.9635168e-38
0.12496373 0.72119582 1.6009601 1.9636594e-38
0.17264691 0.72313464 1.6106577 1.9268179e-38
0.19522759 0.72423261 1.6070011 1.9544406e-38
0.22680944 0.72527528 1.6032772 1.9729157e-38
0.25593537 0.72388297 1.6048889 1.963732e-38
0.28386062 0.72475654 1.6054388 1.9821711e-38
0.31591889 0.72384548 1.6050687 2.0006101e-38
0.345498 0.72450322 1.6038678 2.0097577e-38
0.37357339 0.72374552 1.6041932 2.0190131e-38
0.40449026 0.72550488 1.6063842 2.0466358e-38
0.43549165 0.7258752 1.6059477 2.0559272e-38
0.4649241 0.72641504 1.604794 2.0835859e-38
0.49500063 0.7262131 1.6041964 2.1204642e-38
0.52461833 0.72587764 1.6051626 2.1573424e-38
0.55573738 0.72652543 1.6041241 2.2127314e-38
0.58521199 0.72750479 1.6051185 2.2403541e-38
0.61414611 0.72699064 1.6048334 2.2495736e-38
0.64431125 0.7279768 1.6053382 2.2587932e-38
0.67575794 0.72826821 1.6064576 2.2403541e-38
0.70525908 0.72803426 1.6048856 2.2310986e-38
0.73442775 0.72768629 1.6047924 2.1757814e-38
0.7644316 0.72878152 1.6046599 2.1112448e-38
0.79567015 0.73099387 1.6052974 2.0467077e-38
0.82530349 0.7308588 1.6056776 2.0098294e-38
0.85477257 0.73201412 1.6062334 2.0098293e-38
0.88427621 0.73306119 1.605093 1.9821707e-38
0.9148801 0.73434812 1.6060095 1.9729872e-38
0.94526786 0.73520589 1.6048125 1.9729512e-38
0.97441489 0.73414916 1.6055571 1.9176698e-38
1.0066702 0.73608184 1.604623 1.8715361e-38
1.034446 0.73481864 1.6047837 1.8715004e-38
1.0645008 0.73734188 1.6061265 1.8715363e-38
1.0952414 0.73713934 1.6072497 1.8623168e-38
1.1255378 0.73652834 1.6042995 1.8162554e-38
1.1537658 0.73588717 1.6043345 1.8070716e-38
1.1867397 0.74048346 1.606836 1.8530973e-38
1.215494 0.74057972 1.6052419 1.843914e-38
1.2442641 0.73956192 1.6047671 1.8070716e-38
1.2746059 0.7419346 1.6057904 1.7977802e-38
1.3056413 0.74186522 1.6050067 1.7239516e-38
1.3358397 0.73752189 1.6048392 1.0050791e-38
1.3644269 0.73658252 1.6045623 9.4976226e-39
1.3927755 0.73321903 1.6064996 5.4424681e-39
1.4248849 0.73648888 1.6041631 5.9949188e-39
1.4547232 0.73637396 1.6057898 4.7045387e-39
1.4834903 0.73526627 1.6047937 4.2432074e-39
1.5141597 0.73778665 1.6060048 4.2432032e-39
1.5448284 0.73655975 1.605426 4.0588176e-39
1.5739676 0.73705518 1.6045188 3.8751466e-39
1.6041427 0.73591483 1.6037889 3.9669807e-39
1.6327839 0.73348016 1.6041484 4.0584518e-39
1.663784 0.73656094 1.6049387 4.0584532e-39
1.6961416 0.73974437 1.6068008 3.6907483e-39
1.7236128 0.73792791 1.605274 3.5985555e-39
1.7562617 0.73536712 1.6058972 4.1506447e-39
1.7836995 0.73895729 1.6040789 4.2417627e-39
1.81366 0.73851031 1.6034491 3.7822279e-39
1.8439442 0.73821741 1.6059293 3.5056354e-39
1.8746986 0.73974919 1.6055217 3.4130936e-39
1.9029435 0.73898619 1.6060294 3.5985583e-39
1.9342304 0.74183422 1.6064334 3.6896791e-39
1.9657681 0.74395525 1.604766 4.9796865e-39
1.9988899 0.73756611 1.6084296 5.1629679e-39
2.0162969 0.73265225 1.6072263 7.654761e-39
1.0191771 0.75179702 1.5982581 1.8620642e-38
1.0367893 0.75249481 1.5988581 1.807072e-38
1.0624316 0.75153214 1.5996929 1.7978167e-38
1.0981835 0.75134772 1.6031072 1.8347296e-38
1.1255814 0.7527954 1.6053047 1.8255106e-38
1.1577597 0.75236106 1.6032987 1.7978163e-38
1.1821165 0.75161314 1.6007367 1.7886684e-38
1.2142872 0.75355703 1.6032139 1.7794851e-38
1.2485254 0.75212693 1.603474 1.7701576e-38
1.2704731 0.75130498 1.6005242 1.7609381e-38
1.305728 0.75476122 1.6025971 1.7056917e-38
1.3347646 0.75297672 1.6036618 1.3460933e-38
1.360744 0.75155526 1.6030173 7.6522751e-39
1.398524 0.75200891 1.6004232 1.5394896e-38
1.4253204 0.75313842 1.6034906 1.023375e-38
1.4536632 0.75306082 1.5929171 1.548851e-38
1.4900439 0.75189567 1.596579 4.9735936e-39
1.5183784 0.75322396 1.6067827 3.7840145e-39
1.5438879 0.75120443 1.6027625 3.5989114e-39
1.5720048 0.75175089 1.6038133 4.0591693e-39
1.5980877 0.75310904 1.5939821 4.4254281e-39
1.6384264 0.7512393 1.5967889 3.3230462e-39
1.6663342 0.75166517 1.5992732 3.4138069e-39
1.6861591 0.752671 1.6015471 4.1477636e-39
1.7329557 0.75162148 1.5965157 2.8631498e-39
1.7569422 0.75366443 1.6030785 3.7800629e-39
1.7783235 0.75356519 1.5965227 3.5052794e-39
1.8557426 0.75075829 1.5911968 3.1364885e-39
1.877304 0.75190848 1.6019819 3.1364969e-39
1.9074435 0.75403798 1.604995 3.4109328e-39
1.9321917 0.75503153 1.6026148 3.3183757e-39
1.9644775 0.75330341 1.6040555 3.6918357e-39
1.9998114 0.75369453 1.6095392 5.3502584e-39
2.020071 0.75457907 1.6109904 8.2086635e-39
1.6599779 -0.79220462 1.6444705 3.3190511e-39
1.6912285 -0.78609794 1.6445036 3.225761e-39
1.7196668 -0.7929858 1.6489916 3.7775237e-39
1.7577331 -0.78839797 1.6354682 7.8373446e-39
1.7824193 -0.79023683 1.629176 7.6518757e-39
1.8073142 -0.78775764 1.6371155 8.6645941e-39
1.8356208 -0.78179747 1.6216183 7.4721102e-39
1.7021277 -0.76809502 1.6443994 3.2254009e-39
1.7235413 -0.77167976 1.6430123 4.9803759e-39
1.7631979 -0.76820248 1.6415673 8.2950956e-39
1.78411 -0.76343668 1.6345431 8.4816364e-39
1.8117492 -0.76156497 1.6323252 1.1891436e-38
1.8357595 -0.76867878 1.6311095 9.6816033e-39
1.7187085 -0.7350809 1.642032 7.0115412e-39
1.761525 -0.73394275 1.6441134 8.1114232e-39
1.7846243 -0.73478758 1.6392622 1.1063469e-38
1.8117112 -0.73628032 1.6333989 1.12457e-38
1.8405193 -0.73368794 1.6279247 4.2348655e-39
1.8638959 -0.72187543 1.6224074 1.0145093e-39
1.7241827 -0.70499325 1.6433755 8.3865653e-39
1.7612238 -0.70403814 1.6408435 9.3124775e-39
1.7877582 -0.70615488 1.637777 9.7720179e-39
1.8106432 -0.70384836 1.6320695 8.2958018e-39
1.8335891 -0.70626098 1.6236831 3.9572206e-39
1.8636811 -0.71725953 1.6223991 1.477623e-39
1.6967824 -0.67938852 1.6421762 4.5154251e-39
1.7314365 -0.68017596 1.643888 1.0229749e-38
1.7589654 -0.67519611 1.6413234 9.861687e-39
1.7882892 -0.67475772 1.637079 1.0599255e-38
1.8130797 -0.67273664 1.6344025 9.4003431e-39
1.8386867 -0.67040104 1.6332581 3.2243149e-39
1.7377913 -0.64863694 1.6445518 1.1706316e-38
1.7612789 -0.64277333 1.6411352 1.1061311e-38
1.7871976 -0.64422673 1.6356424 1.0968399e-38
1.8164699 -0.64608979 1.6343142 8.7556898e-39
1.842548 -0.64532048 1.6290116 2.026136e-39
1.8621027 -0.64100707 1.6210526 2.4889163e-39
1.7665398 -0.61937433 1.6421413 1.1336823e-38
1.786296 -0.61467963 1.6358374 1.0691812e-38
1.8136138 -0.61675656 1.6363617 8.4773106e-39
1.8375158 -0.61297411 1.634474 2.4863953e-39
1.8610202 -0.60088187 1.6329845 3.3161476e-39
1.7654614 -0.57012105 1.6473247 9.4918367e-39
1.7915412 -0.58644754 1.6389776 9.5861847e-39
1.8159608 -0.58558077 1.6325405 7.0036141e-39
1.8394691 -0.5821321 1.6297469 2.2108888e-39
