# .PCD v0.7 - Point Cloud Data file format
VERSION 0.7
FIELDS x y z rgb
SIZE 4 4 4 4
TYPE F F F F
COUNT 1 1 1 1
WIDTH 1014
HEIGHT 1
VIEWPOINT 0 0 0 1 0 0 0
POINTS 1014
DATA ascii
-0.22098786 -0.059240464 2.3725076 3.4112159e-39
-0.18891896 -0.057384286 2.3678219 3.5023409e-39
-0.086149648 -0.047735553 2.3688934 3.5934646e-39
-0.056315165 -0.058289882 2.377743 4.238471e-39
-0.02378097 -0.060230024 2.389688 4.7934329e-39
0.0026801121 -0.06131541 2.3901174 5.2529663e-39
-0.32741717 -0.038113501 2.3884704 2.2144734e-39
-0.29756054 -0.021191914 2.3878174 2.857326e-39
-0.2609058 -0.019931486 2.3844328 3.0424376e-39
-0.22052301 -0.019505324 2.3728671 3.4108586e-39
-0.186551 -0.017002156 2.3676782 3.6860077e-39
-0.0851373 -0.020528883 2.373394 4.5157754e-39
-0.063480936 -0.020876484 2.3837023 4.7927196e-39
-0.02775218 -0.023086779 2.3901658 5.5306406e-39
-0.32910645 0.022373911 2.3874259 2.303446e-39
-0.30085659 0.019341946 2.3780012 2.4885533e-39
-0.25760439 0.020707188 2.3810308 3.042076e-39
-0.22134709 0.020147361 2.3751378 3.3183042e-39
-0.1839699 0.017970417 2.3707907 3.4115746e-39
-0.088382572 0.021807289 2.371469 5.0678758e-39
-0.06423609 0.019285509 2.3807905 5.5292056e-39
-0.023107694 0.017185349 2.3827686 6.3607558e-39
-0.32867259 0.052036934 2.388715 2.7622634e-39
-0.29849198 0.058263909 2.3829505 2.6722187e-39
-0.25611874 0.059493959 2.3819072 2.8580463e-39
-0.21992368 0.060112465 2.3777664 3.2261072e-39
-0.18592516 0.05924622 2.3696101 3.2253911e-39
-0.089706108 0.053425491 2.3683271 5.1611476e-39
-0.064712539 0.06085109 2.3817339 5.6221257e-39
-0.028539745 0.056875788 2.3835783 6.3611117e-39
-0.3317956 0.098943748 2.3858039 2.4856807e-39
-0.29992014 0.099782921 2.3782918 2.5800245e-39
-0.25608766 0.1006565 2.3794248 2.7658451e-39
-0.21880426 0.10040015 2.3818369 2.949879e-39
-0.18389344 0.097602025 2.3744352 3.042432e-39
-0.15048002 0.10409146 2.3759999 2.8609246e-39
-0.084858395 0.10129753 2.3744378 5.4370184e-39
-0.066686369 0.099700868 2.3827829 5.7143214e-39
-0.028833957 0.10195846 2.3859069 6.9121247e-39
-0.32829463 0.13148497 2.3974338 2.3034404e-39
-0.29496643 0.13685225 2.3816974 2.4881862e-39
-0.25533742 0.14079615 2.3794537 2.6732991e-39
-0.21793303 0.14063472 2.3792562 2.9491629e-39
-0.18464683 0.14127369 2.3779004 3.1339101e-39
-0.15215078 0.14629963 2.3756676 3.0442214e-39
-0.087786108 0.14199647 2.373312 5.6210524e-39
-0.06469471 0.14229354 2.3821917 5.8979924e-39
-0.028798308 0.13849063 2.3879993 6.8206507e-39
-0.33079392 0.17436932 2.3980553 2.6711411e-39
-0.29167768 0.18254641 2.374949 2.3963563e-39
-0.25490552 0.17776504 2.3823993 2.6736522e-39
-0.2172868 0.17817825 2.3805566 2.9491615e-39
-0.18382841 0.1805837 2.3773735 2.7665667e-39
-0.14385825 0.18344906 2.3754332 2.9520328e-39
-0.088989437 0.17585841 2.3729455 5.620688e-39
-0.06511829 0.17861643 2.3815227 5.8068729e-39
-0.028552959 0.18126595 2.3900597 6.728825e-39
-0.32643139 0.20238011 2.3969669 2.4867611e-39
-0.2928485 0.2232777 2.3833275 2.3052397e-39
-0.2562708 0.22120373 2.3801525 2.5803846e-39
-0.21911933 0.2197904 2.3810813 2.8566086e-39
-0.1824608 0.21992177 2.3755987 2.9491615e-39
-0.14559968 0.22160542 2.3759687 2.8601931e-39
-0.087427326 0.2238221 2.3752465 5.2529845e-39
-0.064498551 0.22092369 2.3812809 5.438452e-39
-0.032381542 0.2195071 2.3895378 6.3589663e-39
-0.33268136 0.26536894 2.3983054 3.1278103e-39
-0.29848504 0.25643641 2.378927 2.211965e-39
-0.25678492 0.25850093 2.3794391 2.67186e-39
-0.21816686 0.26019251 2.3849077 2.85661e-39
-0.18350966 0.26080114 2.3815258 3.0413586e-39
-0.14328001 0.26159397 2.3768814 3.2271778e-39
-0.089092642 0.25897858 2.3715141 5.1600658e-39
-0.067765921 0.2565349 2.3821249 5.5299301e-39
-0.033485718 0.25490946 2.3897145 6.4515277e-39
-0.28605598 0.29236352 2.3841851 3.0374111e-39
-0.26142803 0.29769054 2.37431 2.7640542e-39
-0.21795751 0.29766953 2.3860703 2.857326e-39
-0.17987068 0.29921499 2.3811359 2.9495231e-39
-0.14700876 0.29799166 2.3700607 3.1339101e-39
-0.091686465 0.30005443 2.3791425 5.7125207e-39
-0.067138076 0.30025989 2.3845675 5.8979924e-39
-0.034171432 0.31893337 2.3920002 4.6158659e-39
-0.25877643 0.33862662 2.3842278 2.7647773e-39
-0.21721433 0.33923015 2.3852589 3.1328437e-39
-0.18108933 0.340316 2.378849 3.2261128e-39
-0.14385898 0.34325105 2.3713739 3.7782061e-39
-0.092994675 0.34153128 2.3799067 5.4377345e-39
-0.060187425 0.34118503 2.3833904 6.1756484e-39
-0.034456193 0.33972102 2.3920002 6.4532961e-39
-0.29911345 0.38386893 2.3953178 3.0410096e-39
-0.25933883 0.38147542 2.3828971 2.8573302e-39
-0.21727715 0.37994593 2.3809068 3.5012703e-39
-0.17874645 0.38013613 2.3787782 3.6867364e-39
-0.14600766 0.38067308 2.3721347 3.8711178e-39
-0.097601533 0.38153827 2.3794947 5.4373744e-39
-0.062910497 0.37820479 2.3819561 5.8997832e-39
-0.034496874 0.38206914 2.3920002 5.9037321e-39
-0.3018629 0.42550558 2.3930252 3.5930988e-39
-0.25772133 0.42095107 2.3911581 3.3175867e-39
-0.21594901 0.42120343 2.3815904 3.6860133e-39
-0.17915386 0.42002961 2.381932 3.8718381e-39
-0.14454827 0.42091742 2.371536 4.1484222e-39
-0.096091948 0.42051873 2.3797467 5.5295742e-39
-0.062149137 0.42016956 2.3835113 5.7161206e-39
-0.036449526 0.43511623 2.3920002 5.4416875e-39
-0.29791105 0.45510033 2.3912156 3.8693186e-39
-0.25978878 0.46060231 2.3895855 3.6853015e-39
-0.21628112 0.46004647 2.3819067 3.9618799e-39
-0.17850967 0.4595162 2.3833764 4.2395444e-39
-0.14364888 0.46039209 2.3735814 4.4242958e-39
-0.097328156 0.46095848 2.3781667 5.0689576e-39
-0.064805903 0.46030936 2.3863752 5.5306504e-39
-0.034930795 0.44802544 2.3920002 6.2674811e-39
1.2136581 0.47044319 2.3709154 1.0025551e-38
1.2531277 0.47532192 2.3880002 1.2443881e-38
-0.28795961 0.49431598 2.38762 4.144116e-39
-0.25823197 0.49823686 2.3888776 3.7778516e-39
-0.21917658 0.4984912 2.3812222 4.054077e-39
-0.17743471 0.50186217 2.3807058 4.4232182e-39
-0.14168984 0.50106645 2.3801005 4.3328233e-39
-0.099567048 0.50008309 2.3763771 4.7927266e-39
-0.062923789 0.49974337 2.3844771 5.4377359e-39
-0.032462861 0.51086295 2.3920002 5.7139739e-39
1.1995772 0.51994061 2.3741932 1.4468586e-38
1.2087668 0.50244081 2.3772366 1.2250493e-38
1.2529526 0.48523432 2.3920002 1.1707759e-38
-0.31035435 0.52434194 2.3971317 3.5938149e-39
-0.26022387 0.538167 2.3903282 3.8696871e-39
-0.21654777 0.54009861 2.3769157 4.2381165e-39
-0.17742263 0.53787714 2.3828568 4.6076123e-39
-0.14292087 0.5397687 2.3754413 4.333182e-39
-0.099603727 0.54047918 2.377846 4.6083382e-39
-0.063428469 0.54028678 2.3856196 4.8856453e-39
-0.031893335 0.54218668 2.3920002 6.451878e-39
1.1994538 0.52490854 2.3741708 1.475524e-38
1.2043073 0.52630889 2.3935637 1.4562934e-38
-0.31027055 0.56948733 2.3961096 4.5096587e-39
-0.25041333 0.57914597 2.3934603 3.9625988e-39
-0.21669616 0.57870317 2.3803124 4.1469915e-39
-0.17546292 0.57979894 2.3776948 4.332103e-39
-0.14085762 0.57984084 2.3772576 4.5172145e-39
-0.10013852 0.5796482 2.3762527 4.700531e-39
-0.065034844 0.58044839 2.3856668 4.8852852e-39
-0.035043266 0.58539981 2.385143 5.6235649e-39
-1.1226454 0.62784314 2.3920002 1.1242469e-38
-1.0950592 0.63793147 2.3880002 1.2447489e-38
-1.0660077 0.63799626 2.3840003 1.3826106e-38
-1.0388114 0.63786674 2.3920002 1.3643168e-38
-0.98129612 0.6375941 2.3777778 1.4841354e-38
-0.93733245 0.63612258 2.3794935 1.5300887e-38
-0.90991187 0.63625741 2.3883672 1.3830789e-38
-0.85576689 0.63681865 2.3866601 1.4932826e-38
-0.8253051 0.63768083 2.3903723 1.5670393e-38
-0.77041095 0.63741815 2.3758254 1.4754182e-38
-0.74413443 0.63833928 2.3821089 1.4842431e-38
-0.70245183 0.63830459 2.3913929 1.502647e-38
-0.65200412 0.63622254 2.384676 1.4844231e-38
-0.5832926 0.63514709 2.3829708 1.4289619e-38
-0.49765331 0.63942665 2.3875668 1.4567272e-38
-0.34505007 0.63820928 2.3884478 1.4474715e-38
-0.24857402 0.6185382 2.3835146 4.2363116e-39
-0.220621 0.62158686 2.3755059 4.053012e-39
-0.17341302 0.62006968 2.3803947 4.5164957e-39
-0.13868098 0.62016976 2.3818991 4.9778353e-39
-0.099646196 0.62001085 2.3782144 5.1615077e-39
-0.063815705 0.62046176 2.3828678 6.4515277e-39
-0.031643316 0.62079442 2.3860736 1.0602132e-38
0.22905657 0.63689429 2.3837285 1.8250423e-38
1.2483963 0.61052954 2.3920002 1.5576e-38
-1.0952229 0.6426515 2.3760002 1.3640641e-38
-1.049463 0.6431601 2.3800001 1.3919029e-38
-1.0179174 0.64565593 2.3768888 1.4748435e-38
-0.97108728 0.64471799 2.3826342 1.4473649e-38
-0.93916726 0.64598292 2.3834131 1.475023e-38
-0.89907986 0.64618361 2.3786886 1.4750953e-38
-0.86241692 0.64699566 2.3787179 1.5394879e-38
-0.82012272 0.64582443 2.379621 1.5578915e-38
-0.77665728 0.64798129 2.3776307 1.5488517e-38
-0.74045122 0.65016043 2.3815291 1.5671829e-38
-0.6997208 0.64912134 2.383847 1.5856583e-38
-0.66090542 0.64647591 2.3806615 1.5949138e-38
-0.61868769 0.65039539 2.379178 1.6040973e-38
-0.57676607 0.64874315 2.3817756 1.5489237e-38
-0.53864455 0.65109044 2.3823643 1.5212652e-38
-0.49802044 0.65236878 2.383173 1.5579635e-38
-0.46074837 0.65453804 2.3810663 1.5672907e-38
-0.42210147 0.65213919 2.3812187 1.5488517e-38
-0.37563404 0.65303558 2.3799865 1.5396321e-38
-0.34015331 0.65315849 2.3793306 1.5487798e-38
-0.30194241 0.65442592 2.3803027 1.53956e-38
-0.26060387 0.65546548 2.383209 1.5580706e-38
-0.21915917 0.65406406 2.3787344 1.4934969e-38
-0.17834482 0.65320009 2.3805459 1.4195602e-38
-0.14160638 0.6500563 2.3765593 1.2814101e-38
-0.10062624 0.65022522 2.3756557 1.0506693e-38
-0.05876724 0.65581268 2.3810127 1.6040965e-38
-0.020327901 0.65944797 2.3822176 1.6501946e-38
0.019705636 0.65923929 2.3810546 1.6133165e-38
0.060506973 0.65958929 2.3810558 1.6317915e-38
0.099222526 0.65904576 2.3791249 1.6963285e-38
0.14073202 0.66219532 2.3800583 1.7793043e-38
0.17913319 0.66178215 2.379828 1.8161466e-38
0.21979266 0.6615001 2.3790183 1.8714638e-38
0.26070508 0.66113138 2.3784533 1.8991229e-38
0.29959404 0.66359586 2.381726 1.9452925e-38
0.33988628 0.66571015 2.3791602 1.9544402e-38
0.38028929 0.6651243 2.3792193 1.9267812e-38
0.41910425 0.66525167 2.382261 1.9267453e-38
0.46055239 0.66873395 2.3814268 1.9544399e-38
0.49940702 0.66815114 2.3798208 1.9636954e-38
0.53982329 0.66964608 2.380496 1.9820986e-38
0.58126354 0.66908032 2.381511 1.9913181e-38
0.61930639 0.66844934 2.3810925 1.9820986e-38
0.65928668 0.67067808 2.3792958 1.9820625e-38
0.70059407 0.6694566 2.3803835 1.9452565e-38
0.73996741 0.67061412 2.3811884 1.972915e-38
0.78019136 0.67069787 2.3811173 1.9913183e-38
0.81818086 0.67067254 2.3800123 2.0374158e-38
0.85917419 0.67183119 2.380213 2.0651824e-38
0.8989346 0.67182374 2.380249 2.1112445e-38
0.93946928 0.67125911 2.3805671 2.1481586e-38
0.97931623 0.67031032 2.3808446 2.1112441e-38
1.0199547 0.67266405 2.3847673 2.1665256e-38
1.0609487 0.6739096 2.3824415 2.1573419e-38
1.1007475 0.67049408 2.3814113 2.1389025e-38
1.1396339 0.66902471 2.3822289 2.1019885e-38
1.1777101 0.67137319 2.3828034 2.0558184e-38
1.2150674 0.66700619 2.3807538 1.8158215e-38
1.2440715 0.66548699 2.3873909 1.5479123e-38
0.32186985 0.68362409 2.3676744 1.9452567e-38
0.44857603 0.68010324 2.3618727 1.9268168e-38
0.55447149 0.68027651 2.3823574 1.954476e-38
0.56542343 0.68061018 2.3690269 1.9638752e-38
0.66919822 0.68209207 2.3836172 1.9819549e-38
0.69900775 0.6825968 2.3808994 1.9638038e-38
0.74097908 0.683644 2.3764801 1.9820627e-38
0.78007573 0.68276805 2.3780179 2.0373799e-38
0.82375914 0.68303734 2.3811936 2.0282328e-38
0.85980791 0.68310493 2.37398 2.0743662e-38
0.8976177 0.68319261 2.376318 2.1112805e-38
0.94354987 0.68364882 2.3786604 2.1572701e-38
0.98069 0.6887151 2.3795154 2.1481943e-38
1.0221809 0.68684953 2.378751 2.1850004e-38
1.0595174 0.68519372 2.3792756 2.19422e-38
1.099224 0.69018388 2.3779018 2.1572697e-38
1.139222 0.6872856 2.3756459 2.1203916e-38
1.1778387 0.68728548 2.3781402 2.0465626e-38
1.2159054 0.68766183 2.3812838 1.8712814e-38
1.2430429 0.68391252 2.3982127 1.8991574e-38
-0.2952784 -0.88564849 2.426743 1.9325097e-39
-0.26333869 -0.88580054 2.4119804 2.6675636e-39
-0.23002572 -0.88132238 2.4019432 4.5968195e-39
-0.048865929 -0.88441247 2.4347489 5.8014317e-39
-0.013387496 -0.88920879 2.4195373 3.4033098e-39
-0.33351344 -0.84901571 2.4342332 3.4094699e-39
-0.30012789 -0.85482597 2.4232655 8.0015586e-39
-0.26226354 -0.85559785 2.4095459 1.0023725e-38
-0.22919306 -0.86363715 2.4058781 9.2883149e-39
-0.089048743 -0.84572786 2.4221835 6.8966431e-39
-0.060684469 -0.85661995 2.4227355 6.2545121e-39
-0.021487836 -0.86031252 2.4210296 6.5346863e-39
0.001925397 -0.86488837 2.4260006 6.9960176e-39
0.44729766 -0.84450841 2.4116085 4.7020122e-39
-0.33256212 -0.81957269 2.4329739 4.4239917e-39
-0.29692134 -0.8219983 2.4242198 9.3866552e-39
-0.26233128 -0.81842715 2.414068 1.0764891e-38
-0.23593859 -0.80670637 2.4051285 1.0668007e-38
-0.089430839 -0.81772715 2.4193203 8.0047984e-39
-0.068323947 -0.82050061 2.4230194 8.649795e-39
-0.032666989 -0.8203131 2.4217501 9.112557e-39
0.44261086 -0.83919102 2.4002395 9.1878796e-40
-0.33782101 -0.78537273 2.4319394 3.8668411e-39
-0.29667103 -0.77849472 2.4260674 8.0980478e-39
-0.25927931 -0.78040737 2.4183238 8.2835138e-39
-0.22831647 -0.77804387 2.4099739 7.8247035e-39
-0.19540761 -0.76714581 2.4013782 6.8138166e-39
-0.091786623 -0.78630602 2.4180527 7.9147383e-39
-0.069263756 -0.78211027 2.4249573 8.3764227e-39
-0.035427302 -0.7909531 2.4260004 8.7419738e-39
-0.52345294 -0.72063482 2.4268115 7.5607703e-39
-0.51335394 -0.72243124 2.4239297 8.1128497e-39
-0.45321971 -0.72417349 2.4275985 3.9683834e-39
-0.42963365 -0.72615933 2.431572 3.1350214e-39
-0.37360641 -0.7374512 2.4221892 5.8965308e-39
-0.3366414 -0.73860353 2.422025 3.5919988e-39
-0.30114323 -0.74506068 2.4184227 4.7865777e-39
-0.26140532 -0.74903023 2.4165998 5.4330275e-39
-0.22763252 -0.75298655 2.4099786 5.0707372e-39
-0.19562639 -0.75834095 2.4013381 4.7956091e-39
-0.055853818 -0.7431975 2.4177098 4.8841838e-39
-0.023352211 -0.72404718 2.4267163 3.405472e-39
0.0068263761 -0.72305173 2.4201131 4.2384584e-39
-0.53185397 -0.70751041 2.4236434 1.4747868e-39
-0.49711728 -0.70208651 2.4125607 2.4878373e-39
-0.45315152 -0.70134705 2.4293203 7.3648884e-40
-0.41745743 -0.70155317 2.422771 6.4500928e-40
-0.37965086 -0.70076686 2.4189484 1.1045455e-39
-0.34393629 -0.6960662 2.4082277 1.0134247e-39
-0.041003339 -0.71139431 2.4289732 2.5775288e-39
-0.01409772 -0.69746077 2.4169807 2.5785924e-39
0.018724475 -0.69932956 2.4245803 3.1317605e-39
0.042908851 -0.69842404 2.4260004 3.868971e-39
-0.48861891 -0.64422929 2.4303482 8.2832294e-40
-0.45452136 -0.66200823 2.4245019 8.2868027e-40
-0.41563174 -0.65930104 2.4207215 7.3684337e-40
-0.37927303 -0.65968561 2.4160872 9.208745e-40
-0.34526676 -0.66270608 2.407701 8.2939353e-40
-0.014660551 -0.65892923 2.4128284 2.6711411e-39
0.012686066 -0.66057253 2.4231286 2.9470077e-39
0.43034086 -0.67863941 2.4293754 5.5140254e-40
-0.48725858 -0.63577479 2.4298449 8.2832714e-40
-0.45706591 -0.61766571 2.4291241 6.4464774e-40
-0.4170368 -0.61956728 2.4217575 7.3684337e-40
-0.38027847 -0.62026811 2.4200768 9.2087309e-40
-0.34963864 -0.61769384 2.4072597 8.2975086e-40
-0.014713278 -0.62049234 2.4150517 2.7629808e-39
0.013423647 -0.61837518 2.4216554 3.1317619e-39
0.048247091 -0.61383754 2.4250557 3.8700416e-39
-0.50181121 -0.57128346 2.4331787 4.6206135e-40
-0.45585552 -0.58041483 2.4317238 9.2015703e-40
-0.41809157 -0.57996404 2.4225619 9.2015843e-40
-0.3790504 -0.5814957 2.4222865 9.2123183e-40
-0.34774378 -0.58173138 2.4123404 9.2195069e-40
-0.31724665 -0.5693987 2.4125278 1.1059846e-39
-0.014276779 -0.57993579 2.4142692 2.3034418e-39
0.011913564 -0.57832611 2.4255192 3.1324766e-39
0.046970222 -0.58698791 2.4213641 3.7774859e-39
-0.45116517 -0.54306549 2.4332409 9.2051857e-40
-0.42057514 -0.54071915 2.4171021 1.1049014e-39
-0.37941852 -0.5428589 2.4249208 1.1052658e-39
-0.34321672 -0.53793299 2.4221339 1.0137848e-39
-0.042732246 -0.53486753 2.4118829 2.9484441e-39
-0.017865671 -0.54085392 2.4187376 2.5800245e-39
0.014916719 -0.53823018 2.4260159 2.8569715e-39
0.050042208 -0.53381807 2.4265153 3.9607967e-39
-0.48227605 -0.49818641 2.4265912 1.0116296e-39
-0.45430589 -0.49572793 2.4262626 9.2087169e-40
-0.42285678 -0.49755213 2.4240272 1.01271e-39
-0.37752062 -0.4952904 2.4234533 1.0130701e-39
-0.3441008 -0.49790668 2.415612 1.1056231e-39
-0.31379935 -0.51364672 2.4117446 1.3815009e-39
-0.040375128 -0.51831138 2.4116306 3.2236002e-39
-0.016219532 -0.50101882 2.4173381 3.0392062e-39
0.014821943 -0.5031603 2.4251575 3.5001857e-39
0.047442514 -0.49818638 2.4225996 4.0533567e-39
-0.45653805 -0.46168345 2.4315956 1.1963852e-39
-0.41641915 -0.45781565 2.42365 1.0127184e-39
-0.37421882 -0.46160042 2.4241545 1.2896514e-39
-0.34433311 -0.46159083 2.4155297 1.3814855e-39
-0.31533018 -0.45309162 2.4108891 1.198169e-39
-0.040951185 -0.45402592 2.4056478 2.4882002e-39
-0.018925486 -0.45786378 2.4173205 3.3154427e-39
0.012950609 -0.4592402 2.4225099 3.5934646e-39
0.05053471 -0.47094053 2.4248331 3.8700571e-39
-0.45995229 -0.42013776 2.4294655 1.4726035e-39
-0.41735432 -0.41779116 2.4240963 1.5651607e-39
-0.37649989 -0.4185687 2.427927 1.749552e-39
-0.34454072 -0.4188388 2.4197326 1.7499051e-39
-0.30599821 -0.41144022 2.4117758 2.3023558e-39
-0.041967683 -0.43091705 2.4055495 2.2130496e-39
-0.017461399 -0.42159 2.4187799 3.1317619e-39
0.012534983 -0.41947988 2.4264014 3.5930918e-39
0.041588575 -0.40895432 2.4260001 4.2384542e-39
-0.46849394 -0.38604721 2.4367514 1.0145093e-39
-0.41667435 -0.38440603 2.4312201 1.7506254e-39
-0.37592301 -0.38145399 2.4231052 1.8428238e-39
-0.34320271 -0.37867519 2.4170637 1.9364515e-39
-0.31116754 -0.37892193 2.41064 2.3959934e-39
-0.043755651 -0.38565883 2.4091897 3.1317675e-39
-0.017970691 -0.37880862 2.4180546 3.0395621e-39
0.015466971 -0.38198504 2.4280846 3.5005403e-39
0.041588575 -0.39278099 2.4260001 4.238464e-39
-0.4601905 -0.34115073 2.4337683 1.2914549e-39
-0.41568404 -0.33919665 2.4327445 1.8431825e-39
-0.37777513 -0.33993539 2.4280241 2.1186904e-39
-0.34106076 -0.34105149 2.4215286 2.3045096e-39
-0.30427808 -0.33577591 2.4086294 2.5814636e-39
-0.27552983 -0.33579215 2.4054124 2.674734e-39
-0.042231772 -0.34828386 2.405 3.313998e-39
-0.022702234 -0.34041178 2.4174788 3.500536e-39
0.0090941247 -0.33842692 2.4243908 3.6867266e-39
-0.45765966 -0.2960692 2.4324441 2.027571e-39
-0.41708925 -0.3018851 2.4301682 1.8431853e-39
-0.37714219 -0.29844555 2.4246581 2.119768e-39
-0.34017736 -0.29903793 2.4232566 2.4889065e-39
-0.30423212 -0.29789242 2.407686 2.8569729e-39
-0.042698685 -0.2966204 2.4070442 3.22288e-39
-0.023174409 -0.30068099 2.4203925 3.4998256e-39
0.012641853 -0.2960566 2.4213729 3.9633079e-39
-0.46923909 -0.26051143 2.4353046 1.7517044e-39
-0.41586491 -0.26228026 2.4341068 1.9353725e-39
-0.37626827 -0.2623764 2.4279449 2.3034404e-39
-0.33896002 -0.2595652 2.4207304 2.3974283e-39
-0.30341819 -0.25879589 2.410126 2.9480839e-39
-0.27913153 -0.24934816 2.4152174 3.039918e-39
-0.043562256 -0.25574762 2.4093614 3.8675277e-39
-0.022406721 -0.26078236 2.4207249 3.6849315e-39
0.011330028 -0.25793326 2.4250813 4.1477089e-39
-0.41258448 -0.22776628 2.4310601 2.577512e-39
-0.37233481 -0.223582 2.4315407 2.3034376e-39
-0.33685514 -0.22026314 2.4211316 2.6722173e-39
-0.30566037 -0.22113106 2.4093084 2.8569687e-39
-0.26267403 -0.21315698 2.4075811 2.9470049e-39
-0.045371231 -0.22336984 2.4115505 3.501985e-39
-0.025167558 -0.22108975 2.4209564 3.9618729e-39
0.011250467 -0.22179708 2.4199834 4.6990792e-39
-0.42934793 -0.18890765 2.4374502 2.1183387e-39
-0.37359601 -0.17914464 2.4221244 2.4878233e-39
-0.33702639 -0.1775284 2.4230559 2.76405e-39
-0.30484945 -0.17923278 2.4150879 2.7651318e-39
-0.2678414 -0.17804854 2.4119096 3.0406355e-39
-0.046390202 -0.17974587 2.4061658 4.1444677e-39
-0.023390099 -0.17969044 2.4212406 4.331017e-39
0.0098371934 -0.1780284 2.4215944 5.3448032e-39
0.42429775 -0.16309518 2.4224024 3.2225689e-39
-0.37298939 -0.14173682 2.4318931 2.3048739e-39
-0.33624691 -0.14128622 2.4204986 2.6725789e-39
-0.30417812 -0.13985179 2.41447 2.8573316e-39
-0.27265948 -0.13193697 2.4084423 2.7647745e-39
-0.23416018 -0.12934202 2.4037175 3.5012577e-39
-0.047886141 -0.14116563 2.4095371 4.0522735e-39
-0.024056526 -0.14226222 2.4194701 4.3310212e-39
0.0078081903 -0.14194731 2.4223011 5.0682261e-39
0.43107998 -0.1596832 2.4359007 9.3088803e-39
-0.37449503 -0.10013978 2.4359062 2.5803818e-39
-0.33472434 -0.10075599 2.4255366 2.6729404e-39
-0.30376673 -0.100461 2.4149003 2.8573302e-39
-0.26135269 -0.1042671 2.4075203 2.765136e-39
-0.23971429 -0.10744919 2.4047625 2.5825328e-39
-0.04392628 -0.10598791 2.4093029 4.0547888e-39
-0.025203522 -0.098825678 2.4212162 4.5150523e-39
0.0060794353 -0.10174653 2.4252014 5.1604189e-39
-0.41367647 -0.042682044 2.4310069 1.5705459e-39
-0.37583971 -0.054614741 2.4350514 2.2130398e-39
-0.33572373 -0.058931585 2.4256949 2.7647717e-39
-0.30269459 -0.060221896 2.4180324 3.1328395e-39
-0.265356 -0.057346106 2.4092317 3.1342731e-39
-0.23393485 -0.052004203 2.4028757 4.0547986e-39
-0.049384959 -0.052193426 2.4084256 4.3292317e-39
-0.02432837 -0.060347304 2.4187291 4.5161313e-39
0.010331973 -0.058581926 2.4201188 5.5288329e-39
-0.41403994 -0.035537362 2.4310167 1.5705445e-39
-0.37381139 -0.0245267 2.4339893 2.3052369e-39
-0.33143637 -0.021380058 2.4214728 3.039925e-39
-0.30137244 -0.018873572 2.4139335 3.0409998e-39
-0.26239344 -0.019857792 2.4079666 3.2253967e-39
-0.082356185 -0.015674859 2.401516 4.8827698e-39
-0.052584454 -0.018888444 2.4149184 4.6998079e-39
-0.023388518 -0.020310499 2.4193194 5.4373645e-39
0.0042448239 -0.022773534 2.4208832 5.9905425e-39
-0.37186754 0.035751384 2.4335506 2.6725648e-39
-0.32989416 0.020275226 2.4277041 2.7644172e-39
-0.29985705 0.019864347 2.4168317 3.0420746e-39
-0.26891908 0.017541075 2.4071217 3.1342661e-39
-0.23498659 0.013360689 2.4024484 3.5026842e-39
-0.084831737 0.023090906 2.4093776 4.8831286e-39
-0.05490835 0.021882163 2.418776 5.5288483e-39
-0.023119014 0.018059067 2.4276857 5.6235551e-39
0.0022178353 0.012711188 2.4196274 7.0025238e-39
-0.3774412 0.043873738 2.4350467 2.3963549e-39
-0.33250934 0.059162341 2.426029 2.5803902e-39
-0.29949972 0.060214598 2.4203465 2.766208e-39
-0.26638129 0.06032211 2.4123797 3.0417187e-39
-0.2340049 0.072505347 2.4026527 3.4097824e-39
-0.050767314 0.060043655 2.417043 5.4370156e-39
-0.02602737 0.062983468 2.4236176 5.7150402e-39
-0.38771218 0.09912321 2.4372706 2.3956346e-39
-0.33110172 0.098663494 2.4290736 2.7633367e-39
-0.30034429 0.098003209 2.4228535 2.9491615e-39
-0.26329401 0.10048884 2.4110537 3.0417159e-39
-0.23476647 0.10011348 2.4024599 2.8573373e-39
-0.087697864 0.1184374 2.4009075 5.8954798e-39
-0.054269094 0.10140274 2.41605 5.6214125e-39
-0.027389172 0.099833667 2.4245882 6.0831011e-39
0.0028880953 0.10041668 2.4238753 6.7281118e-39
-0.33175215 0.14031279 2.4223399 2.7633353e-39
-0.30081072 0.13926741 2.4217622 2.9480853e-39
-0.26339406 0.13754734 2.4125113 2.8576848e-39
-0.23064695 0.13750264 2.4075856 3.1342633e-39
-0.18966097 0.13459811 2.4090002 3.0442144e-39
-0.053637315 0.13989775 2.4154971 5.6217656e-39
-0.026311519 0.14095746 2.4263721 6.1749324e-39
0.0028042272 0.14497443 2.4334803 6.8227765e-39
-0.33220974 0.17904928 2.4224024 2.6714999e-39
-0.29913339 0.17869204 2.4247906 2.8566058e-39
-0.26156992 0.18124954 2.4139266 2.7654877e-39
-0.22872345 0.18438737 2.411288 2.8580449e-39
-0.091768816 0.19610041 2.4009795 5.7121578e-39
-0.052595142 0.17904747 2.4186537 5.8983511e-39
-0.026442774 0.17625991 2.4236867 6.2674924e-39
-0.33553624 0.21932948 2.4201326 2.2116063e-39
-0.29936025 0.22048219 2.4218147 2.7640514e-39
-0.26210111 0.21818624 2.4167089 2.8569659e-39
-0.2274742 0.21982978 2.4137266 3.0424278e-39
-0.091812514 0.21320784 2.4038963 5.4362996e-39
-0.056286711 0.21924125 2.4176531 5.7139626e-39
-0.02628403 0.21940187 2.4234064 6.1760128e-39
-0.33618632 0.260627 2.4165099 2.6693531e-39
-0.29639372 0.26063365 2.4244542 2.6722215e-39
-0.26009607 0.25932592 2.4199793 2.9491559e-39
-0.22746548 0.26059046 2.4140463 3.0413516e-39
-0.056472961 0.25997907 2.4175134 5.4377373e-39
-0.030156674 0.25954968 2.4257326 6.0838186e-39
-0.33806828 0.29905024 2.4251342 2.304518e-39
-0.29847279 0.2994456 2.4233971 2.5807434e-39
-0.25766429 0.299916 2.4201951 2.8576876e-39
-0.22446705 0.30336535 2.4135666 3.1339115e-39
-0.19444072 0.31144932 2.4090002 2.4028135e-39
-0.083289742 0.31038287 2.411159 5.9869552e-39
-0.060219854 0.29895902 2.4182796 5.8983525e-39
-0.033881813 0.29966885 2.4272583 6.4515235e-39
-0.34162876 0.33841485 2.4320517 2.8551764e-39
-0.29846704 0.33969969 2.4250705 2.9491643e-39
-0.25936356 0.33891994 2.4206922 3.0417131e-39
-0.22304149 0.34000632 2.4132836 3.2261072e-39
-0.19348474 0.34363306 2.4090002 3.0442368e-39
-0.084622875 0.34495533 2.4123211 5.4366597e-39
-0.064612038 0.34111699 2.4187491 5.990188e-39
-0.029762806 0.33982828 2.4263396 6.4536759e-39
-0.36073717 0.38233054 2.4373755 2.6711579e-39
-0.33900133 0.37845385 2.4260135 2.9470161e-39
-0.29659075 0.37813556 2.4202867 2.7658521e-39
-0.25861004 0.37745807 2.424123 3.1346318e-39
-0.22251099 0.37990597 2.4113789 3.4104956e-39
-0.18663417 0.38141441 2.410279 3.595617e-39
-0.089309387 0.37797582 2.4136164 5.4370212e-39
-0.060443331 0.37864372 2.4231777 5.715043e-39
-0.029930245 0.37675688 2.4247658 6.2703664e-39
-0.36242098 0.42460474 2.4371839 2.9480923e-39
-0.33791348 0.42194638 2.4265239 3.1324808e-39
-0.29910216 0.41826671 2.4114871 3.2253953e-39
-0.25731492 0.41829976 2.4228148 3.7782033e-39
-0.22100477 0.41998759 2.413414 3.9629561e-39
-0.19331735 0.42021719 2.407912 3.8729157e-39
-0.08507546 0.41771123 2.4108489 5.8054394e-39
-0.064096496 0.41991016 2.4198408 5.8983539e-39
-0.033960152 0.416996 2.4235809 6.1774575e-39
-0.36270729 0.45557284 2.4366319 3.6827875e-39
-0.338213 0.45644513 2.4268196 3.7764139e-39
-0.2998808 0.46325612 2.4116845 3.7771299e-39
-0.25601959 0.46198857 2.4277492 3.8718423e-39
-0.22128305 0.46031597 2.4159079 4.0558762e-39
-0.18955201 0.46111307 2.4049382 4.0562308e-39
-0.082848907 0.4592306 2.4123938 5.529577e-39
-0.062297989 0.46251261 2.4207766 5.3466207e-39
-0.027744044 0.46100768 2.4239368 6.0852577e-39
1.2572687 0.47721145 2.4090002 1.1344374e-38
-0.36491168 0.50368702 2.4375396 3.5019836e-39
-0.33711746 0.50249881 2.4298875 3.5934576e-39
-0.30138665 0.50401407 2.4188232 3.7785677e-39
-0.25915611 0.50017273 2.4280584 3.6885286e-39
-0.22071801 0.50121337 2.417901 4.1477159e-39
-0.18546215 0.50193036 2.4074292 4.5161341e-39
-0.15402789 0.50903237 2.4097245 4.7034008e-39
-0.086054727 0.50365388 2.4112134 4.8845649e-39
-0.063869111 0.49885765 2.4234569 5.3455417e-39
-0.030597534 0.50419259 2.4227643 5.9916271e-39
1.2218401 0.48456639 2.4030626 1.4289577e-38
1.2572687 0.48180005 2.4090002 1.1255048e-38
-0.36718872 0.54487872 2.4370642 3.409432e-39
-0.33597878 0.54066879 2.4298346 3.8693354e-39
-0.29945081 0.53976929 2.4138129 3.6860189e-39
-0.25145599 0.5388183 2.4285238 4.147353e-39
-0.22007172 0.53855026 2.4146841 4.2402647e-39
-0.18694818 0.54333365 2.4093893 4.5168544e-39
-0.087992929 0.54189157 2.4140396 4.6079766e-39
-0.063973092 0.53808367 2.4218707 4.7927238e-39
-0.029234078 0.54424566 2.419347 5.3487759e-39
-0.36596045 0.56704581 2.4330664 3.2282736e-39
-0.3370344 0.57503188 2.4243774 3.9611625e-39
-0.29960775 0.57889521 2.4169159 3.7774971e-39
-0.25756833 0.57968336 2.4178762 3.9636834e-39
-0.21886508 0.58051288 2.4169216 4.3321058e-39
-0.1863766 0.58021206 2.4072819 4.4246602e-39
-0.14912859 0.59651428 2.4090002 5.3466165e-39
-0.085272826 0.5749265 2.4140592 4.791649e-39
-0.064104095 0.58200657 2.4224138 4.7927294e-39
-0.028596748 0.57688653 2.4192629 5.3484227e-39
-1.1182705 0.6376915 2.4260001 1.1614503e-38
-1.0649803 0.63714385 2.4217503 1.3458768e-38
-1.0203263 0.63764483 2.4290078 1.3919391e-38
-0.98065007 0.63906646 2.4235392 1.3921188e-38
-0.94105369 0.63481647 2.4244289 1.4197767e-38
-0.90136063 0.63520241 2.4271159 1.4197058e-38
-0.86017114 0.63566858 2.4200838 1.4748798e-38
-0.82227075 0.63732731 2.4194195 1.5394521e-38
-0.77419162 0.63678771 2.4212201 1.4934268e-38
-0.73853868 0.63794649 2.4183245 1.4843512e-38
-0.70755321 0.63853735 2.4273076 1.5303048e-38
-0.66406435 0.63747799 2.4075925 1.5119732e-38
-0.60437191 0.63390362 2.4234624 1.4105585e-38
-0.58309668 0.63591427 2.4231002 1.4656958e-38
-0.54587781 0.63717991 2.4305699 1.5118295e-38
-0.50086606 0.63899976 2.4201438 1.4750237e-38
-0.41746005 0.63681471 2.4387145 1.4748086e-38
-0.3685486 0.63646805 2.4392164 1.4477594e-38
-0.33329892 0.62022477 2.4291718 5.1607875e-39
-0.29968405 0.6232264 2.4184716 5.2497405e-39
-0.25913584 0.61997378 2.4143021 4.3303065e-39
-0.21648136 0.61984807 2.4222584 4.7909287e-39
-0.1843458 0.62012672 2.4080117 5.5299273e-39
-0.15204619 0.62279087 2.4067318 6.451871e-39
-0.08650919 0.62039608 2.4131715 5.0678758e-39
-0.062150892 0.62033486 2.4217248 4.7930895e-39
-0.026785957 0.62386376 2.4248519 8.5734705e-39
0.02158843 0.63973469 2.4387128 1.5944085e-38
0.25097096 0.63588941 2.4366205 1.8436255e-38
-1.0969394 0.6426881 2.4220774 1.2905232e-38
-1.0553013 0.64550662 2.4206877 1.3736074e-38
-1.0219768 0.64498413 2.4197392 1.4656591e-38
-0.98049861 0.64460415 2.4228871 1.4196705e-38
-0.94122738 0.64448994 2.4200993 1.4565482e-38
-0.90150887 0.64858449 2.4245548 1.4934977e-38
-0.86085069 0.64390498 2.417294 1.5026458e-38
-0.81618237 0.64327097 2.420712 1.5027893e-38
-0.77765334 0.64701575 2.4191051 1.5488876e-38
-0.73941684 0.64913005 2.416826 1.5672191e-38
-0.69684041 0.64597523 2.4176955 1.5856942e-38
-0.65829933 0.64656729 2.4217801 1.5764739e-38
-0.61986095 0.64936411 2.4201355 1.5580354e-38
-0.57734239 0.64719325 2.420398 1.5303405e-38
-0.54046905 0.64889014 2.417345 1.5119736e-38
-0.49980387 0.65104389 2.4203238 1.5396683e-38
-0.45976332 0.65267903 2.4193261 1.5580351e-38
-0.41858554 0.65320975 2.4261055 1.5303764e-38
-0.3789148 0.65007246 2.4216604 1.5211211e-38
-0.34052342 0.65056461 2.4211564 1.5303403e-38
-0.29825252 0.65171498 2.4166324 1.5211561e-38
-0.25919378 0.65212727 2.4199359 1.419741e-38
-0.21854255 0.65046901 2.4172707 1.2998858e-38
-0.18743686 0.64929265 2.4082375 1.2352397e-38
-0.15561679 0.64617485 2.4034288 1.2997035e-38
-0.084013708 0.64685518 2.4112837 7.0025491e-39
-0.059327692 0.65327168 2.4172482 1.4197049e-38
-0.02042005 0.65519613 2.4203377 1.6225357e-38
0.019366708 0.65548539 2.4206111 1.604061e-38
0.059387799 0.65651715 2.4201143 1.6133165e-38
0.10173665 0.65784115 2.4200962 1.6778894e-38
0.14156759 0.65955335 2.418781 1.7608292e-38
0.18034948 0.65831614 2.4197402 1.8068911e-38
0.21923189 0.6604225 2.4195058 1.8530608e-38
0.26098222 0.65745163 2.420032 1.8991585e-38
0.30108741 0.66100293 2.417702 1.936001e-38
0.33895481 0.66318339 2.420325 1.9636956e-38
0.37911665 0.66206199 2.417537 1.9360009e-38
0.41922641 0.66229618 2.4197526 1.9267453e-38
0.4585993 0.66341007 2.4172404 1.9452202e-38
0.50034159 0.66390318 2.4216433 1.9636594e-38
0.53921247 0.66707546 2.4198303 1.972843e-38
0.57866859 0.6676231 2.4198856 1.9820625e-38
0.62160665 0.66673076 2.4182346 1.9636954e-38
0.6602394 0.66752028 2.4188817 1.9636593e-38
0.69887364 0.66762322 2.4194107 1.954404e-38
0.73965752 0.6695925 2.4207907 1.9452923e-38
0.77981234 0.66854358 2.4182146 1.9545476e-38
0.8207289 0.67037416 2.4202912 1.9821703e-38
0.85945344 0.67014474 2.4197972 2.0005017e-38
0.89928186 0.67107075 2.42135 2.0836214e-38
0.94076663 0.6696071 2.4197013 2.1665254e-38
0.97880983 0.67062068 2.4203689 2.1204638e-38
1.0206244 0.66977459 2.4199176 2.1480863e-38
1.0590225 0.67085791 2.4169726 2.157306e-38
1.0981936 0.66875905 2.4177992 2.129647e-38
1.1419245 0.67120379 2.4200997 2.1019525e-38
1.1799141 0.66941744 2.4190702 2.0558546e-38
1.2205762 0.66671771 2.4177008 1.9174169e-38
1.2524463 0.66203707 2.4230542 1.723661e-38
0.47964597 0.68156517 2.4088161 1.9267087e-38
0.48387331 0.68177032 2.4261665 1.9172744e-38
0.55651224 0.68003666 2.408814 1.9729145e-38
0.67824531 0.68122703 2.4126642 2.0099013e-38
0.69586337 0.68153423 2.4109962 1.9361451e-38
0.74165368 0.68270624 2.4252472 1.9820623e-38
0.77399737 0.68336868 2.4164553 1.9914618e-38
0.82528704 0.68195266 2.4219673 2.083514e-38
0.85929161 0.68194157 2.4161618 2.0559265e-38
0.90349168 0.68249202 2.4172831 2.1019527e-38
0.94209093 0.68378907 2.4195139 2.148087e-38
0.98179805 0.68760163 2.4125485 2.1389746e-38
1.0174105 0.68617231 2.4204113 2.1480863e-38
1.0623944 0.68441808 2.4162993 2.1665254e-38
1.0977384 0.68558526 2.4244952 2.1664532e-38
1.1381861 0.68663597 2.4158015 2.1295751e-38
1.1781085 0.68502039 2.4170098 2.0650383e-38
1.2214708 0.68714917 2.4182811 1.9450393e-38
1.248121 0.6854797 2.4268694 1.926634e-38
-0.32634532 -0.88386977 2.4589667 3.6771053e-40
-0.2955451 -0.89650226 2.4624951 6.4466456e-40
-0.27826932 -0.88971728 2.4430001 1.4719071e-39
-0.042228892 -0.88565844 2.4496584 6.1691254e-39
-0.017548876 -0.89133644 2.4611666 3.8664305e-39
0.017668117 -0.89689809 2.4617538 4.5118013e-39
0.054828513 -0.88811266 2.4762106 6.9989183e-39
0.41871485 -0.89162511 2.4766989 1.1244239e-38
-0.36612457 -0.8638677 2.471118 1.6606606e-39
-0.33891156 -0.85627198 2.456636 2.4900471e-39
-0.29987094 -0.85877252 2.4434824 5.1572142e-39
-0.054104555 -0.85317212 2.4588363 6.9881171e-39
-0.02154999 -0.86291075 2.4611316 6.3492175e-39
0.014235015 -0.86161733 2.4580445 7.085349e-39
0.066080004 -0.87792003 2.4780002 6.0773277e-39
0.2494165 -0.85501224 2.4714715 1.2259112e-38
0.38912246 -0.85854948 2.4762151 1.3271822e-38
0.41834477 -0.85803133 2.4736469 1.1980719e-38
0.45424259 -0.85752434 2.4611378 3.5873773e-39
-0.36824772 -0.81422508 2.462461 2.4882619e-39
-0.33703825 -0.82009047 2.4549139 2.9503204e-39
-0.30572024 -0.81371486 2.4458692 6.1677619e-39
-0.27818167 -0.80278176 2.4424429 8.0908773e-39
-0.082010657 -0.808213 2.4465575 8.1855687e-39
-0.057315499 -0.81732994 2.4591904 8.5561603e-39
-0.02251878 -0.81767088 2.4594936 9.1100459e-39
0.0053025004 -0.82211339 2.4734995 9.1104074e-39
0.30906829 -0.82277942 2.4799726 1.2810137e-38
0.34413663 -0.82929957 2.474997 1.3547339e-38
0.37521088 -0.81734222 2.4762087 1.3363312e-38
0.41844299 -0.82295096 2.4765804 1.197965e-38
0.45979473 -0.82026619 2.4619527 5.530656e-39
-0.36665201 -0.78086448 2.4614546 7.3673449e-39
-0.33947837 -0.78031588 2.457473 8.0083661e-39
-0.30209637 -0.7820006 2.4469709 8.2849375e-39
-0.27281263 -0.77633238 2.4420485 7.456616e-39
-0.083671495 -0.79080141 2.4428513 8.2838642e-39
-0.059829518 -0.78349745 2.4607484 7.5484697e-39
-0.023680834 -0.78192693 2.4652264 7.6435366e-39
0.004718442 -0.78337669 2.4755459 8.0998526e-39
0.38647422 -0.77665454 2.4786983 1.318143e-38
0.41248453 -0.78466141 2.4752223 1.2165125e-38
0.44368005 -0.78352004 2.4780002 1.3732799e-38
-0.53770018 -0.73124641 2.4792137 9.3681006e-41
-0.49259481 -0.72436833 2.4663808 1.3807821e-39
-0.46130368 -0.72894943 2.4620619 2.3034516e-39
-0.42436808 -0.72591788 2.4583986 9.2015703e-40
-0.37875462 -0.73661315 2.450572 4.4192441e-39
-0.33735707 -0.75343144 2.4518425 6.627598e-39
-0.30081648 -0.75355506 2.4497509 5.3422458e-39
-0.27920002 -0.75383997 2.4430003 5.1582161e-39
-0.046447735 -0.75204819 2.4570794 4.3317457e-39
-0.023503406 -0.74481243 2.4584172 4.513246e-39
0.012403647 -0.73951846 2.4580772 4.6068766e-39
0.37866065 -0.7283144 2.4752407 1.3362953e-38
0.40397471 -0.74198896 2.4775052 1.2535698e-38
0.45819134 -0.73567581 2.464992 9.217035e-39
-0.63491428 -0.69348574 2.46 2.2962545e-39
-0.53593069 -0.6975044 2.4649918 7.3648604e-40
-0.49840543 -0.6969009 2.4622934 9.2015843e-40
-0.4601486 -0.69984227 2.4606719 9.2051576e-40
-0.42293304 -0.69771212 2.4537745 8.29039e-40
-0.38758907 -0.69828045 2.4439535 9.208745e-40
-0.0063012955 -0.70686656 2.4500234 2.7636899e-39
0.019397516 -0.69711101 2.4549699 3.0392034e-39
0.052070905 -0.69495934 2.4625309 3.684577e-39
0.35993573 -0.71737856 2.479784 1.3457658e-38
0.37712917 -0.70320064 2.4719596 1.3454783e-38
0.433925 -0.68760663 2.4453948 2.7590446e-40
0.44136009 -0.70184016 2.4796112 3.6774836e-40
-0.5361867 -0.66124272 2.46384 8.2831873e-40
-0.49997905 -0.66093379 2.4615011 8.2832154e-40
-0.46012765 -0.66068262 2.4627702 8.2867747e-40
-0.42354581 -0.65997142 2.4535093 7.3684337e-40
-0.38826269 -0.66088814 2.4437342 9.2123183e-40
-0.0081848698 -0.65332901 2.4460623 2.4881848e-39
0.024704788 -0.65884089 2.4550638 2.9470063e-39
0.05275828 -0.66438305 2.4600501 3.5005417e-39
0.37542117 -0.65051383 2.472183 1.3361871e-38
0.43354258 -0.67875046 2.4454713 9.1909345e-40
-0.53758705 -0.62101793 2.4650774 7.3612591e-40
-0.49788913 -0.62049603 2.461513 9.197997e-40
-0.46055555 -0.6193229 2.4589038 1.0119939e-39
-0.42126068 -0.61769462 2.4545798 8.2867887e-40
-0.38885412 -0.61842835 2.446954 1.1041868e-39
-0.0064086616 -0.62638116 2.4447544 2.1197666e-39
0.017881591 -0.6189155 2.4581766 2.9473735e-39
0.056165613 -0.61902946 2.45825 3.5941652e-39
0.080240004 -0.60416001 2.4780002 3.8707675e-39
0.38507691 -0.62902468 2.4678054 1.2441356e-38
-0.53891206 -0.57959884 2.4728169 6.4465335e-40
-0.49891844 -0.58043718 2.4590993 9.2015983e-40
-0.45933405 -0.58059955 2.459527 1.1038294e-39
-0.42248473 -0.58052784 2.4487219 8.2867887e-40
-0.39044526 -0.58236158 2.4416173 1.1045413e-39
-0.35132667 -0.57817668 2.4430001 8.3083126e-40
-0.0065814555 -0.57588887 2.4479024 2.4867541e-39
0.018894145 -0.58085638 2.4555564 2.6715013e-39
0.054205082 -0.58231699 2.4598536 3.5001801e-39
0.080240004 -0.59000003 2.4780002 4.7894714e-39
0.38062099 -0.56833208 2.4693153 1.3086714e-38
-0.56023037 -0.5302844 2.4699082 6.4393168e-40
-0.5389654 -0.5411557 2.4680598 7.3684197e-40
-0.49676514 -0.54022044 2.4589698 8.290404e-40
-0.46159127 -0.54008579 2.4582698 9.208759e-40
-0.41828567 -0.53823429 2.4530094 9.2123043e-40
-0.38548875 -0.53369111 2.4431598 1.1045483e-39
-0.35109404 -0.53536606 2.4430006 1.0141421e-39
-0.0076096701 -0.54075366 2.4493036 2.7622577e-39
0.018491806 -0.5404734 2.4538431 3.0395635e-39
0.052222867 -0.53918946 2.4537823 3.8685969e-39
0.38476148 -0.54480928 2.475673 1.2720089e-38
-0.56060469 -0.50337303 2.479373 9.2015703e-40
-0.53596079 -0.50011581 2.4722869 9.2015563e-40
-0.49957991 -0.5011726 2.4554374 1.1038266e-39
-0.46136501 -0.50158042 2.4581783 1.1045483e-39
-0.42004099 -0.49856469 2.4562547 9.2123043e-40
-0.38364747 -0.50164771 2.4456875 9.2158916e-40
-0.35396361 -0.50659287 2.4430003 8.3082706e-40
-0.0073095858 -0.49884236 2.4495127 2.7644115e-39
0.018955145 -0.50109512 2.459832 3.2239534e-39
0.056212492 -0.50521678 2.4643211 3.8696745e-39
0.38912532 -0.49012548 2.4726329 1.3916456e-38
-0.56183457 -0.46291304 2.4791911 1.1953006e-39
-0.54118848 -0.46144512 2.4732323 9.2123743e-40
-0.49503049 -0.46136403 2.4589877 1.1963866e-39
-0.45792195 -0.45966139 2.4581318 1.2889325e-39
-0.42087853 -0.46049547 2.458415 1.1974558e-39
-0.38901338 -0.45747519 2.4456854 1.2896514e-39
-0.35099429 -0.45137337 2.4430001 1.2900087e-39
-0.007595405 -0.45169336 2.4502313 2.762985e-39
0.019570341 -0.4583624 2.4577768 3.2235988e-39
0.055535875 -0.46249938 2.4641132 4.0526364e-39
0.080595985 -0.47913674 2.4735742 4.4174645e-39
0.43610659 -0.45243031 2.4778781 5.5139693e-40
0.44161054 -0.45215923 2.4739974 6.1781862e-39
-0.56349391 -0.42474654 2.4682367 1.2871417e-39
-0.54428786 -0.42216209 2.4693334 1.1045469e-39
-0.49784178 -0.41871563 2.4610162 1.3814883e-39
-0.45714167 -0.41873714 2.4668489 1.7488317e-39
-0.42070463 -0.42052829 2.4608591 1.5658754e-39
-0.38459951 -0.41991583 2.4491863 2.0246969e-39
-0.35468745 -0.41699037 2.4430003 1.659143e-39
-0.0068906695 -0.41955 2.4534938 3.0402852e-39
0.019694857 -0.41924497 2.4615622 3.500536e-39
0.05285091 -0.41917071 2.4649415 4.5125286e-39
-0.53933525 -0.3821958 2.470793 1.198176e-39
-0.49645591 -0.38110927 2.4654646 1.7491946e-39
-0.45703089 -0.38000098 2.4623673 1.6584353e-39
-0.41977733 -0.37796333 2.4578168 1.751703e-39
-0.38597941 -0.37858546 2.4482291 2.1194023e-39
-0.35193902 -0.38622674 2.4430003 1.9375179e-39
-0.0097079976 -0.37916708 2.4506691 3.1303228e-39
0.016474161 -0.38009289 2.4581981 3.2232401e-39
0.049291711 -0.38181913 2.4613984 3.8689584e-39
-0.56948751 -0.34591129 2.4798448 1.3818456e-39
-0.53243846 -0.33792439 2.4690802 1.3822086e-39
-0.49692363 -0.34137952 2.4680586 1.8424651e-39
-0.45721784 -0.33897582 2.4641581 1.9346579e-39
-0.42152148 -0.34003806 2.4595563 2.0275668e-39
-0.38415182 -0.33961558 2.4485381 2.2119608e-39
-0.35393932 -0.33383235 2.4444993 2.1208358e-39
-0.011023711 -0.3416335 2.4539247 3.3165119e-39
0.013837298 -0.34030646 2.4596086 3.7774901e-39
0.048296131 -0.3412481 2.473536 4.515767e-39
-0.5337525 -0.30863813 2.4690709 1.2914451e-39
-0.49924043 -0.30328995 2.4739976 1.7509883e-39
-0.45784232 -0.29924297 2.4629648 2.0275738e-39
-0.42076805 -0.29969397 2.4580951 2.0282884e-39
-0.38330057 -0.30084443 2.4484794 2.3967052e-39
-0.35402909 -0.30161119 2.4454105 2.3066634e-39
-0.0076530469 -0.30157316 2.4537122 3.5001843e-39
0.014830391 -0.30128801 2.4612091 3.8693214e-39
0.045165714 -0.29811496 2.4727061 4.6990792e-39
-0.5702157 -0.26745439 2.4769349 1.6573479e-39
-0.53478819 -0.27456662 2.4689181 1.3843498e-39
-0.49695137 -0.25910375 2.4703007 1.9346607e-39
-0.45768675 -0.25908685 2.4654436 2.2116021e-39
-0.41979709 -0.25901538 2.4621155 2.2123196e-39
-0.38176009 -0.25921178 2.450443 2.5803818e-39
-0.35205686 -0.25953728 2.4454522 2.4896239e-39
-0.01158621 -0.25789252 2.4552364 3.500899e-39
0.017277662 -0.26076555 2.4589603 4.1462642e-39
0.051404767 -0.26028165 2.4663749 4.6061675e-39
-0.48969415 -0.22951536 2.4741082 2.3941955e-39
-0.45671451 -0.22134022 2.4643188 2.2108888e-39
-0.41898099 -0.2194691 2.4645717 2.3041551e-39
-0.38185319 -0.21894091 2.4509404 2.5796616e-39
-0.35155478 -0.21652497 2.4468031 2.5810993e-39
-0.014241614 -0.21907191 2.4584513 3.7767628e-39
0.015170019 -0.21895564 2.463536 3.9622331e-39
0.045564953 -0.21429184 2.4744005 5.4341303e-39
-0.53221416 -0.16632448 2.4745502 1.6587941e-39
-0.50021511 -0.16806588 2.4731722 1.9339334e-39
-0.45384637 -0.1797241 2.4657578 2.2101672e-39
-0.41709244 -0.17910364 2.4604468 2.3952717e-39
-0.38272762 -0.17984404 2.4524379 2.671497e-39
-0.35110378 -0.1855817 2.4461551 2.4896197e-39
-0.011844147 -0.18176298 2.4596283 4.3299422e-39
0.015541377 -0.1784704 2.4632447 4.9749473e-39
0.048652038 -0.18168119 2.4773407 5.8032716e-39
0.42928624 -0.16562228 2.4715409 9.2208242e-41
-0.54327291 -0.15716277 2.4698055 2.1172527e-39
-0.49827728 -0.15041517 2.4723814 1.7524232e-39
-0.45374486 -0.140793 2.4717143 2.3023656e-39
-0.41581258 -0.14266394 2.465205 2.3959934e-39
-0.3814882 -0.13850753 2.454138 2.7640528e-39
-0.34661996 -0.1309116 2.4445832 2.581458e-39
-0.012905132 -0.13601625 2.4566166 4.4217819e-39
0.016621321 -0.14143594 2.4578059 4.7912749e-39
0.043458097 -0.13280571 2.4705732 5.2529747e-39
-0.52548337 -0.08297547 2.4793158 2.2101644e-39
-0.48758617 -0.10869302 2.4687533 2.4899799e-39
-0.45914963 -0.096696213 2.4705329 2.3952745e-39
-0.4156476 -0.098575294 2.4653721 2.5796644e-39
-0.38137776 -0.0991956 2.4525595 2.6729348e-39
-0.34582961 -0.10060087 2.4442713 2.5814594e-39
-0.31235498 -0.087831683 2.4430001 2.6754501e-39
-0.013762672 -0.10103121 2.4583063 4.5143363e-39
0.019581439 -0.099672474 2.4578865 5.1611364e-39
0.042480003 -0.10384001 2.4780004 5.5291902e-39
-0.52493566 -0.071924776 2.4790123 1.7509855e-39
-0.51679671 -0.070277892 2.4766488 2.0272066e-39
-0.45758584 -0.064121671 2.4723234 2.4863939e-39
-0.41601807 -0.061204508 2.4646554 2.3959948e-39
-0.38036701 -0.061460067 2.4531434 2.7636969e-39
-0.34472135 -0.061959531 2.4435723 2.8569631e-39
-0.311308 -0.072592005 2.4430003 3.0435026e-39
-0.015906608 -0.059716389 2.4595325 4.2388284e-39
0.020208284 -0.061516237 2.4611945 5.0689436e-39
0.044608876 -0.060201444 2.4727592 5.4373758e-39
-0.48974931 -0.0036192816 2.4679854 2.5789455e-39
-0.45463932 -0.015394862 2.4751854 2.7626151e-39
-0.41694161 -0.020406127 2.465344 2.5803832e-39
-0.38022968 -0.019252006 2.4581268 2.8569673e-39
-0.34785998 -0.019631276 2.445322 2.857326e-39
-0.043666892 -0.014916608 2.448683 4.7912805e-39
-0.018661639 -0.020559143 2.4579761 4.8838362e-39
0.016400296 -0.020590914 2.454392 5.8979868e-39
0.045540955 -0.020667937 2.4730003 6.3578929e-39
-0.4923999 0.0089628864 2.4685817 1.8446132e-39
-0.46553898 0.014512652 2.476666 2.1201295e-39
-0.41508031 0.019112837 2.4721093 2.4881848e-39
-0.37903222 0.019140387 2.4585216 2.5810993e-39
-0.344767 0.019386595 2.4444194 2.8576792e-39
-0.29688266 0.027919998 2.4430001 2.9523817e-39
-0.044118706 0.017745398 2.4483747 5.0675156e-39
-0.022291327 0.020194469 2.4603524 4.9767465e-39
0.017357916 0.020325288 2.4582727 5.8994217e-39
0.043634288 0.020042861 2.4765005 6.7273859e-39
-0.48138294 0.071127906 2.4791582 2.1208442e-39
-0.45891821 0.06710244 2.472908 2.3949214e-39
-0.41609174 0.059709165 2.4725404 2.6714999e-39
-0.37665254 0.061258517 2.4581826 2.6725775e-39
-0.3435438 0.061018731 2.4465749 2.4892596e-39
-0.30848315 0.062957183 2.4429419 3.1346206e-39
-0.042747065 0.063189484 2.447201 5.1604273e-39
-0.020728337 0.058473445 2.4560852 4.609413e-39
0.014389472 0.059421003 2.4613905 5.9912572e-39
0.044840004 0.047200006 2.4780004 6.5433534e-39
-0.48177633 0.08407037 2.4791002 2.3963563e-39
-0.46874604 0.087688118 2.4753036 2.1201211e-39
-0.41390646 0.09964405 2.468683 2.4874687e-39
-0.37658954 0.10025666 2.4573002 2.5807378e-39
-0.34519848 0.098720811 2.4472308 2.6725746e-39
-0.30472046 0.10480744 2.4430907 3.13355e-39
-0.043657955 0.099217586 2.4462409 5.25263e-39
-0.021828132 0.10100585 2.4618294 5.5299301e-39
0.013864042 0.10141296 2.4593658 6.8203074e-39
-0.48332819 0.13512121 2.4788713 2.3938368e-39
-0.44396403 0.1369866 2.4675217 2.5785727e-39
-0.41544777 0.14018524 2.4702427 2.211965e-39
-0.37603298 0.13988812 2.4652088 2.5807363e-39
-0.34398878 0.13937794 2.4542828 2.6718586e-39
-0.30286124 0.14222024 2.4430687 2.8583994e-39
-0.26505387 0.15151253 2.4430003 3.3172168e-39
-0.045073319 0.13707547 2.4479172 5.1615077e-39
-0.019766057 0.13885032 2.4583781 5.7136039e-39
0.0088347113 0.13966443 2.4616561 6.8206675e-39
-0.41895682 0.17401627 2.4757288 2.3037949e-39
-0.37347615 0.17869832 2.4690871 2.6725704e-39
-0.34267959 0.1797235 2.4533055 2.5803832e-39
-0.30532324 0.18214405 2.443661 3.0406327e-39
-0.26789635 0.16572773 2.444072 3.2264603e-39
-0.048505291 0.18865658 2.4449437 6.2660532e-39
-0.02146812 0.18255377 2.4583766 5.8979952e-39
0.0086108418 0.17902185 2.4598367 6.8206661e-39
-0.37118289 0.21909612 2.4705544 2.5807349e-39
-0.33969736 0.22046895 2.4572055 2.6722173e-39
-0.30525166 0.21808906 2.4478965 2.9487972e-39
-0.26058671 0.22242935 2.4430003 3.3175783e-39
-0.23732001 0.22336002 2.4430001 3.3182916e-39
-0.047121231 0.21800548 2.4478607 5.8065198e-39
-0.021265887 0.21827967 2.4609227 5.8990714e-39
0.012742315 0.21889576 2.4634216 6.9121387e-39
-0.40214404 0.25960001 2.4780004 3.0399096e-39
-0.37238485 0.26041284 2.4754922 2.6725704e-39
-0.33904365 0.26030546 2.4618139 2.5807392e-39
-0.30348086 0.26081002 2.4454064 2.8569631e-39
-0.26660281 0.2684564 2.4427347 3.1335486e-39
-0.23732001 0.26989332 2.4430001 3.0409886e-39
-0.048981786 0.26455814 2.4482462 5.3462563e-39
-0.021892987 0.26020387 2.4591892 5.8994287e-39
0.0099806739 0.25816098 2.4619751 7.0046832e-39
-0.40441042 0.2996977 2.4714394 2.5782238e-39
-0.37736663 0.30091441 2.472754 2.4885435e-39
-0.34004796 0.29987895 2.4638541 2.6729362e-39
-0.303579 0.3008236 2.4503002 2.9491629e-39
-0.27171886 0.299541 2.4423323 3.3168721e-39
-0.050838519 0.30046785 2.4533434 5.8061569e-39
-0.022861835 0.2999247 2.4594824 6.2674896e-39
0.0070709256 0.300363 2.4684699 6.4533213e-39
-0.37167776 0.33857909 2.4703937 2.6725746e-39
-0.33901751 0.34027034 2.4619274 2.9488014e-39
-0.30245215 0.34039614 2.451787 3.0417131e-39
-0.26749602 0.34291202 2.4436753 3.5026898e-39
-0.22801334 0.32108 2.4430001 2.861621e-39
-0.050795585 0.34002057 2.4583027 5.7135997e-39
-0.023899231 0.34172207 2.4627991 5.5310063e-39
0.0049177641 0.33700526 2.4678261 6.6366224e-39
-0.37341517 0.38116816 2.4756618 2.4885449e-39
-0.33714414 0.38078237 2.4653673 2.7654947e-39
-0.30259627 0.38033706 2.4564416 3.1335584e-39
-0.26518956 0.38695866 2.4453442 3.5016207e-39
-0.23615667 0.39204335 2.4430001 3.5963372e-39
-0.050038066 0.38262573 2.451952 5.897998e-39
-0.023436241 0.3783859 2.4571638 5.8072317e-39
